ply
format ascii 1.0
element vertex 814
property float x
property float y
property float z
property float nx
property float ny
property float nz
element face 0
property list uchar int vertex_indices
end_header
0.0395813 -0.4021 -0.143066 -0.471424 0.462653 -0.750808
0.0826416 -0.493164 0.0557861 0.214161 -0.874489 -0.435206
0.093811 -0.431396 -0.120422 0.922395 0.226153 -0.313118
0.0880127 -0.25708 0.0692139 0.92702 0.0618518 0.369875
0.045166 -0.142212 -0.0354919 0.364002 -0.219855 0.905078
0.0107193 -0.145142 -0.0423279 -0.502985 -0.281899 0.817031
-0.0395202 0.166626 -0.219971 -0.786535 0.560749 0.258697
-0.059143 0.0426636 0.291748 0.220485 -0.588271 0.778025
-0.0176239 -0.13855 0.0438538 -0.915007 -0.223761 -0.335698
0.0956421 0.0170898 -0.0486755 0.909934 -0.299734 -0.286672
0.0370789 0.264648 0.178345 0.111036 0.666914 0.736815
-0.0439758 0.0916748 -0.0724487 -0.676063 0.267285 -0.686656
0.0432434 0.218018 0.215332 0.372454 0.606478 0.702468
0.0161896 0.028717 0.101013 -0.0245365 -0.0703461 0.997221
-0.0176849 0.071106 0.0818482 -0.57579 0.125334 0.807934
-0.0301971 0.293457 0.00688934 -0.879152 0.470309 -0.0768191
-0.00526048 0.293701 -0.127197 -0.734687 0.375883 -0.564753
0.0553284 -0.364014 0.0805664 -0.411847 0.31568 0.854827
0.014534 -0.463379 0.1026 0.10171 0.283105 0.953681
-0.0587768 0.184692 0.0158386 -0.98323 0.0924061 0.157227
0.0593872 -0.383301 -0.0722656 0.249429 -0.34133 0.906245
0.0314941 0.0263519 0.0993652 0.321784 -0.0979321 0.941735
0.0797119 -0.275879 0.0275269 0.60762 0.0405086 -0.793194
-0.00231172 0.185303 -0.153198 -0.179143 -0.666292 0.723853
0.0698242 -0.412354 0.0349426 0.0412435 -0.255719 -0.965871
-0.016861 0.406006 -0.0281982 -0.293811 -0.300689 -0.907338
-0.0581055 0.205566 -0.0154572 -0.986227 0.162896 0.0286638
0.0465088 -0.258057 -0.0591431 -0.0927122 -0.108105 0.989807
-0.0103454 -0.160156 0.0410156 -0.803094 -0.175676 -0.569366
0.0236816 -0.266113 0.0859375 -0.37613 -0.285089 0.881618
-0.0482788 0.0906983 -0.0687866 -0.681048 0.270106 -0.6806
0.0736084 0.139404 -0.0735474 0.665349 0.12915 -0.735276
0.0387573 -0.257324 -0.126831 -0.319022 0.156574 -0.934724
0.00914764 -0.218018 -0.118958 0.138074 -0.0885801 -0.986453
0.0806275 -0.280518 0.0822144 0.633746 0.065186 0.770789
-0.0397034 0.405029 -0.0147095 -0.684598 -0.146788 -0.713988
0.101318 0.181519 -0.0164795 0.998802 -0.0215099 -0.0439638
-0.0198974 -0.00769042 -0.113831 -0.359479 0.206098 -0.910109
-0.0481262 0.403076 0.0165558 -0.845428 -0.248831 0.472583
0.00459292 0.0806885 0.0939941 -0.45492 0.0518564 0.889021
0.0433044 -0.192871 0.0866089 0.415392 0.143804 0.898203
0.0501709 0.212646 -0.174683 0.959485 -0.174994 -0.220832
-0.00141808 -0.248291 0.0685425 -0.745907 -0.29697 0.59618
0.108765 0.0409851 -0.0251312 0.980868 -0.0906571 -0.172275
0.0648193 -0.424805 -0.145996 0.36575 -0.168029 -0.91542
0.0894165 0.307861 0.0506592 0.951867 0.176598 0.250525
0.0271454 -0.448242 0.0462952 -0.542815 0.369399 -0.754252
0.00792695 0.305908 0.129639 -0.705186 0.418375 0.572429
0.00252151 0.129761 -0.0947876 -0.428526 0.247086 -0.869088
-0.0226288 -0.168945 0.0702515 -0.969733 -0.192636 0.15003
0.0915527 -0.374023 0.0687256 0.765942 0.00139852 0.642909
-0.0297241 0.379883 -0.00505829 -0.614368 -0.641729 -0.45906
0.0034866 -0.126953 0.0874023 -0.481863 -0.204294 0.852099
-0.024765 -0.056488 0.020874 -0.798953 -0.392168 -0.455938
0.0406189 -0.116699 -0.0314636 0.338588 -0.0938629 0.936241
0.0950928 -0.438965 -0.120422 0.907528 0.145309 -0.394054
0.0436707 0.116211 -0.0927124 0.428605 -0.014298 -0.903379
0.0139465 0.341553 -0.104126 -0.603642 0.761086 -0.237413
0.0308075 -0.114014 -0.0288086 0.0230648 -0.216196 0.976078
-0.0844116 0.0531616 -0.29541 -0.24418 -0.27867 -0.928827
0.0644531 -0.408691 0.0370483 0.241505 -0.507116 -0.82735
-0.0452881 0.0726318 -0.250977 0.389519 -0.758197 0.522888
0.00942233 -0.164062 0.0819702 -0.296329 -0.119101 0.947631
0.0653076 0.217529 0.125122 0.917914 -0.335259 -0.212217
-0.0169372 -0.00223159 -0.112244 -0.286259 0.190929 -0.938937
0.0445251 -0.185425 0.011322 0.0949966 -0.177762 -0.979478
0.0472412 0.416748 -0.030365 0.438497 -0.40562 -0.801993
-0.030777 -0.0368957 -0.0346985 -0.815529 -0.508411 0.276461
0.0522156 -0.0453491 -0.102356 0.788977 -0.0989675 -0.6064
0.0519409 0.159058 0.172363 0.763312 -0.604404 -0.228145
-0.0527039 0.0539246 -0.076355 -0.788629 0.0346931 -0.61389
0.0344543 -0.291992 0.0740967 -0.528788 -0.208951 0.822632
0.0553589 0.419678 -0.0246735 0.625753 -0.382724 -0.679674
-0.0192108 0.176025 -0.0875854 -0.432407 -0.115638 -0.894232
-0.0123825 0.163452 -0.0859985 -0.292765 -0.0922072 -0.951728
0.0219116 -0.261719 -0.112488 -0.749219 0.00421989 -0.662309
0.0047302 -0.240112 -0.114929 -0.0683945 -0.453683 -0.888534
0.00801849 -0.0585327 -0.00685883 0.112571 -0.287026 -0.951285
0.00849149 0.417236 -0.0363464 -0.0807796 -0.227019 -0.970534
0.017395 0.185547 0.149658 -0.161442 -0.724054 -0.670583
0.0901489 -0.471924 -0.0918579 0.517478 -0.0888086 0.851076
0.0673828 0.330322 0.0892334 0.83093 0.422618 0.36187
0.0239868 0.390137 0.0392761 0.41006 0.0208098 0.911821
0.0686645 0.330078 -0.0875244 0.742723 0.515325 -0.427554
0.0751343 0.237305 0.067688 0.756743 -0.176443 0.62945
0.0838623 -0.415771 0.0756226 0.529694 0.244426 0.812207
0.0808716 0.0255585 -0.0786133 0.691979 -0.312668 -0.650694
0.00849149 0.320068 -0.135376 -0.53117 0.539845 -0.653012
0.0354919 0.265869 -0.181641 0.246667 0.604409 -0.757525
0.0680542 -0.234253 -0.062561 0.527007 -0.0481256 0.848497
-0.0171051 0.103394 -0.269287 0.691894 -0.478769 -0.540428
0.012413 0.223755 0.210327 -0.449819 0.474526 0.75663
-0.0174713 0.104919 0.205444 -0.561778 -0.236596 -0.792735
0.0708008 -0.263428 0.0231628 0.435476 0.0355843 -0.899497
0.0512085 -0.363281 0.0774536 -0.442491 0.338491 0.830437
0.0814209 -0.293213 -0.0784912 0.850739 -0.0704426 0.520846
0.108948 0.0379028 0.0180664 0.985392 -0.132492 0.106993
0.0654908 -0.0509033 -0.059845 0.955337 -0.190763 -0.225703
0.018219 -0.331055 -0.0740356 -0.47583 -0.023805 0.879215
0.062622 0.207764 0.162476 0.9832 -0.181108 0.0227464
-0.0144195 0.113403 -0.0895996 -0.493883 0.186909 -0.849203
-0.0422668 0.273682 -0.0379028 -0.922121 0.385614 -0.0315313
-0.0682373 0.0364075 0.0138855 -0.857136 -0.478519 0.190621
0.0237732 0.12262 0.191895 0.398671 -0.621315 -0.674558
-0.0735474 0.0690918 0.0118484 -0.936391 0.136776 0.323208
0.00177382 -0.11853 0.088562 -0.419936 -0.124288 0.899003
0.0362854 0.493408 0.0154114 0.379887 0.882959 0.275807
0.0193024 0.272705 0.167358 -0.300291 0.517474 0.801278
-0.0426026 -0.00626755 -0.09375 -0.781835 0.0992039 -0.615542
0.00613784 -0.460693 0.0482788 -0.130348 -0.263212 -0.955892
0.0139007 -0.465332 -0.105469 -0.407132 -0.181723 0.895109
0.0926514 0.00374414 0.0361328 0.926911 -0.229762 0.296724
0.0360412 -0.112549 0.0883179 0.278594 -0.01733 0.960253
0.0577088 -0.485596 -0.117493 -0.140834 -0.982821 0.119285
0.0812989 -0.242554 0.032959 0.747368 0.118689 -0.653723
-0.086731 0.0535278 0.26001 -0.899406 0.199204 -0.389085
-0.0315857 -0.0278168 -0.00709534 -0.776221 -0.627286 -0.0631991
-0.0386353 -0.484131 0.071106 -0.371725 -0.518109 -0.770314
-0.0130997 0.200562 -0.0922852 -0.618481 -0.33675 -0.709987
0.0569458 -0.197266 -0.0499878 0.615631 -0.0830955 0.783641
0.0562134 -0.0524597 0.0888062 0.552966 0.222799 0.802863
-0.047638 0.139404 -0.231689 -0.774055 0.310014 0.552024
0.0507812 -0.366699 0.0805054 -0.422817 0.454104 0.784229
0.0906983 -0.363525 -0.107727 0.995469 0.0512181 0.0801145
0.0754394 -0.373047 -0.137207 0.383148 0.176279 -0.90671
-0.0519104 -0.4729 -0.146729 -0.827698 0.550388 0.109494
-0.040802 0.0664062 -0.0888062 -0.653207 0.155929 -0.74095
0.0102539 0.158447 0.0909424 -0.0967518 -0.0917191 0.991073
0.0176544 -0.206665 -0.0622559 -0.542807 -0.268699 0.795714
0.0849609 0.0200653 -0.0699463 0.764625 -0.243246 -0.596808
0.053894 -0.126465 0.083374 0.589221 0.0665312 0.805228
0.0597839 -0.354736 0.0771484 -0.408864 0.333808 0.849354
0.0774536 -0.227905 0.0318909 0.722601 0.149621 -0.674879
0.0795899 -0.36377 0.0263519 0.274142 0.0368138 -0.960984
-0.0176544 0.192383 -0.20874 -0.874063 0.484531 0.0352785
0.0517578 0.484863 -0.00369263 0.712464 0.697235 -0.0791158
-0.0238495 0.140869 0.241943 -0.881114 0.438401 -0.17732
0.0145798 -0.197021 0.0799561 -0.226236 -0.07467 0.971206
-0.0467834 0.191772 0.0510559 -0.85729 0.0845978 0.507836
-0.0461426 0.0256958 0.0615234 -0.761249 -0.14732 0.631504
0.0552978 -0.395508 -0.149902 0.0496934 0.607104 -0.793067
0.0276794 -0.472412 -0.16626 0.328327 -0.133447 -0.93509
0.0181274 0.328125 0.124634 -0.505092 0.639192 0.579927
0.0847778 -0.408691 0.0336609 0.525332 -0.000160907 -0.850898
0.0310364 0.197754 -0.219727 0.759683 0.0943326 -0.643416
-0.0611267 0.102234 0.255615 -0.714043 0.597393 -0.365055
0.0631103 -0.0516357 0.0627441 0.942736 -0.300018 0.145733
0.0968017 0.0110321 -0.0179901 0.896839 -0.4363 -0.0729582
0.0435486 0.376709 -0.0319824 0.552099 0.45855 -0.696361
0.0442505 0.155518 0.226318 0.903009 -0.155906 0.400335
0.078064 -0.258789 -0.0733643 0.825397 -0.000911442 0.564552
-0.0278015 0.0997315 0.289795 0.0810639 0.273149 0.95855
-0.0271911 0.0876465 -0.249756 0.520284 -0.720474 0.4585
0.0453797 -0.0133743 0.0848999 0.535238 -0.00295162 0.844696
-0.0766602 0.071106 -0.012001 -0.992146 0.0974937 -0.0783643
0.0610962 -0.0648804 0.0764771 0.907757 -0.216614 0.359243
0.061554 0.361084 -0.0258636 0.580328 0.761175 -0.289538
0.0653076 -0.429443 -0.0786743 0.0360722 -0.0676466 0.997057
0.00317385 0.0856933 0.239868 0.543378 -0.839486 0.0017437
-0.0597534 0.129883 0.0272064 -0.951028 0.0524865 0.304615
0.00414656 0.178589 -0.0932007 -0.26157 -0.449171 -0.854299
0.0180207 -0.459473 0.0995483 -0.0128246 0.486291 0.873703
0.0609742 -0.105835 0.0635376 0.947996 0.112935 0.297573
-0.0042572 0.155395 0.174438 -0.673947 -0.592584 -0.441181
0.043335 -0.351318 0.0305023 -0.592808 0.124298 -0.795694
0.09375 0.254883 -0.0550232 0.838194 0.00368329 -0.545359
-0.0333862 0.291992 -0.0275269 -0.880703 0.472452 0.0339428
0.0306091 0.0261536 -0.110535 0.268092 -0.207364 -0.940812
-0.00231933 0.218628 -0.219971 -0.330624 0.566618 -0.75474
0.0358582 -0.0819702 -0.0223846 0.819454 0.264017 0.508714
-0.0765991 0.0708618 -0.0069809 -0.990906 0.134362 -0.00719334
0.0503235 -0.404541 -0.083313 -0.437162 -0.238106 0.867292
0.0949707 0.189087 -0.055481 0.866694 -0.00945285 -0.49875
0.0778198 -0.0260773 0.0290375 0.55606 -0.774065 -0.30269
-0.0654907 0.16333 -0.022522 -0.988715 0.119901 -0.0898116
0.00713733 0.224609 0.203735 -0.883905 0.18421 0.429858
-0.0242157 0.345947 -0.0179749 -0.855347 -0.139695 -0.498865
0.0866089 -0.346924 -0.0956421 0.935585 -0.034087 0.351453
-0.0128403 0.2771 -0.130737 -0.793508 0.401584 -0.457248
-0.0520935 0.231323 -0.0545349 -0.947997 0.0639161 -0.311795
0.0568848 0.180908 0.18811 0.965807 -0.248869 0.0726684
0.0724487 -0.204224 -0.0872803 0.983771 0.134007 0.119314
0.00775528 -0.128418 0.014946 -0.578132 -0.119038 -0.807213
0.0237579 -0.299561 0.0200806 -0.303458 -0.300064 -0.904364
0.0961914 0.247681 0.00153637 0.99369 0.0369373 0.105905
0.0230103 -0.029129 -0.117187 0.45693 0.164346 -0.874189
-0.0440979 -0.017334 0.00546646 -0.883467 -0.443928 -0.149711
0.0249176 -0.0662842 0.0975952 0.0495293 -0.154891 0.986689
0.103088 0.130737 0.0112457 0.994072 0.0632619 0.0884256
-0.0263062 0.204224 -0.159302 -0.974071 0.109845 -0.197789
0.0060654 0.331543 0.0863647 -0.794125 0.595567 0.121098
-0.00663375 -0.0109863 0.0933838 -0.357003 0.0627707 0.931992
0.0666504 -0.116699 0.0462646 0.985522 0.112237 0.127082
0.032196 -0.330078 0.0299377 -0.562408 -0.25291 -0.787231
0.0865479 -0.246704 0.069519 0.871048 0.118712 0.476637
-0.0134735 0.299805 0.0574951 -0.86195 0.348131 0.368574
-0.0107422 0.130859 0.198975 -0.818275 0.0384908 -0.573537
0.102478 0.209106 0.0171814 0.994146 0.108013 -0.0026373
0.049469 0.185547 0.223877 0.791095 0.0383829 0.610488
-0.0675049 0.0414734 -0.277832 0.436597 -0.814238 -0.382623
0.0167389 -0.19873 -0.0605469 -0.549546 -0.317995 0.772579
-0.02742 -0.154053 -0.0897827 -0.936997 -0.192405 0.291576
-0.0140839 0.0456848 -0.111511 -0.410696 0.101222 -0.906136
0.0633545 -0.474365 -0.147339 0.251744 -0.401543 -0.880561
0.0707398 -0.0207062 0.0108566 0.454887 -0.819707 -0.348079
0.0558471 0.294922 -0.144409 0.690263 0.360558 -0.627324
0.0539246 -0.153076 -0.116211 0.50571 -0.0505031 -0.861224
0.0844726 0.134522 -0.0707397 0.801728 0.162633 -0.575137
-0.0765381 0.0637818 0.265137 -0.789763 0.404993 0.460711
-0.0372314 0.0180664 0.0617065 -0.787959 -0.154991 0.595901
0.0783081 -0.486572 0.0849609 0.135697 -0.534246 0.834367
0.0202637 -0.116272 0.0938721 -0.104062 0.0376771 0.993857
-0.0214996 -0.47583 -0.120911 -0.587857 -0.0522722 0.807274
0.0263062 0.0490722 0.10022 0.129192 0.0864054 0.987848
0.0101089 -0.294434 0.0239105 -0.64161 -0.237171 -0.729443
0.0390625 0.19043 -0.138062 0.284325 -0.554065 0.782414
0.0787353 -0.307861 -0.125366 0.494666 0.135497 -0.858456
-0.0480041 -0.000403179 0.0302734 -0.97555 -0.201876 0.0868775
-0.0187531 0.327148 0.0208435 -0.990462 0.0159338 0.13686
0.0910644 0.0609742 -0.071106 0.7791 0.0545542 -0.624521
-0.0397339 -0.0213928 -0.00345802 -0.830594 -0.534927 -0.154811
0.0264435 0.23645 -0.206543 0.221885 0.625074 -0.748365
0.0421448 -0.0240326 0.0866089 0.4647 0.0585658 0.883529
-0.0447388 0.106812 -0.224365 -0.571585 -0.448118 0.687372
0.0133057 0.12793 -0.19104 0.373987 -0.846693 0.378476
0.0745239 0.232178 -0.0769653 0.82169 -0.02595 -0.569344
0.0654908 0.347656 -0.0687256 0.642746 0.687516 -0.337934
0.0102158 -0.09729 -0.11908 -0.130369 0.126535 -0.983358
0.0648804 -0.222046 -0.11261 0.540032 0.194274 -0.818916
0.0415344 -0.137695 0.00727463 0.100886 -0.0545988 -0.993399
0.00207712 0.393311 -0.0257874 -0.130805 -0.175691 -0.975717
-0.0697632 0.121338 -0.0276337 -0.976508 0.111547 -0.184364
0.0703735 -0.389404 0.0236511 0.610956 -0.31161 -0.727758
-0.00486754 0.331543 -0.0541992 -0.748903 0.604623 -0.271248
-0.0468445 0.218872 -0.0675659 -0.839275 -0.0852582 -0.536981
0.0631103 -0.0987549 -0.0710449 0.867185 0.0839242 -0.490864
-0.0134812 -0.463135 0.0952148 -0.994499 0.0933113 0.0475818
0.0734863 0.267334 -0.0859985 0.879998 -0.136858 -0.454832
0.0595398 0.223755 0.192627 0.838289 0.241141 0.489002
0.0828247 0.0950928 0.061676 0.712867 0.0269201 0.700782
-0.0139694 0.215942 0.114563 -0.930607 -0.326899 0.164646
0.0567322 0.459717 0.0361938 0.745003 0.361111 0.560865
-0.0424805 0.172241 -0.0703735 -0.67132 -0.0251479 -0.740741
0.101013 0.222412 0.0227203 0.992853 0.119297 -0.00327835
0.0280457 0.346436 0.0982056 -0.32629 0.881535 0.341219
-0.0827026 0.0390625 0.252197 -0.680696 -0.439212 -0.586298
0.103394 0.0718994 -0.0352783 0.979922 0.082071 -0.181707
0.0309906 -0.441895 -0.146606 -0.0201759 0.74275 -0.669265
-0.0405273 0.128052 -0.0744629 -0.631235 -0.0161741 -0.775423
-0.00344657 0.262451 0.129517 -0.898175 0.306879 0.314813
0.0725708 0.216064 -0.0801392 0.772964 -0.119723 -0.623051
-0.0893555 0.0455322 0.260742 -0.979827 0.0214576 -0.198691
0.00764465 -0.301025 -0.081604 -0.528721 0.272126 0.803991
0.000432512 0.293213 0.121094 -0.856049 0.244463 0.455431
-0.0437622 -0.0158081 -0.0015583 -0.861286 -0.494399 -0.117283
0.0100555 0.320801 -0.13562 -0.517975 0.518552 -0.680299
0.0432739 -0.484131 -0.138428 0.272687 -0.910899 -0.309684
-0.0467529 -0.0358887 -0.0878906 -0.940719 -0.0795385 -0.32973
0.0332336 0.163208 -0.157593 0.727132 -0.491253 0.47953
0.0600891 -0.327393 0.0208435 -0.0272907 -0.112407 -0.993287
-0.0114517 -0.484131 0.107178 -0.59475 0.652258 -0.469928
0.104004 -0.485352 -0.115112 0.800915 -0.594865 0.0683405
-0.0545654 0.0692749 -0.251465 0.268833 -0.802957 0.531967
-0.0110397 0.0789795 0.0834351 -0.537234 0.0888776 0.838737
-0.0401306 -0.0368652 -0.0544739 -0.891541 -0.300115 0.339243
0.0692139 -0.0565491 0.0287018 0.991779 -0.0127414 -0.12733
0.051239 -0.322021 -0.131836 -0.303904 0.00109859 -0.952702
0.0949707 -0.49292 0.0447693 0.516654 -0.644209 -0.56397
-0.00495147 -0.107544 -0.118835 -0.152874 0.162302 -0.974827
0.0226288 0.129639 -0.214355 0.803078 -0.595686 0.0149835
0.0999146 0.0910644 -0.0442505 0.969892 0.103604 -0.220398
0.0145416 0.142578 0.0929565 -0.175691 0.0349641 0.983824
-0.032196 -0.0554504 -0.107605 -0.592734 -0.0674918 -0.802566
0.0227356 -0.266113 0.0185547 -0.330451 0.0753609 -0.94081
0.0611267 0.291748 -0.133179 0.875888 0.208613 -0.435088
0.0462036 0.370117 -0.0334778 0.643482 0.589144 -0.488714
0.0485229 0.161255 0.207642 0.920934 -0.382953 0.0722953
-0.0315552 -0.112549 0.0631714 -0.981635 -0.128958 0.140583
0.0651855 -0.425781 0.092041 0.119525 0.349997 0.929094
0.00629041 0.241943 0.186768 -0.831069 0.400292 0.386122
0.100098 0.107544 -0.0354614 0.971527 0.086141 -0.220713
-0.0623779 0.0395203 -0.0598145 -0.879345 -0.326525 -0.346603
-0.0472717 0.24646 0.0351868 -0.928004 0.307143 0.210884
0.0707398 -0.143677 0.0235443 0.772005 0.0727427 -0.631441
0.0856323 -0.252197 0.0393066 0.844199 0.027937 -0.535302
-0.0361633 0.172974 -0.238281 -0.720321 0.659196 -0.215866
0.0841065 0.334473 -0.0124893 0.870487 0.492004 0.0135677
-0.0623474 0.0315552 0.0397949 -0.910133 -0.139364 0.390174
-0.0318909 0.14978 0.0727539 -0.678535 -0.0680841 0.731406
-0.00562285 -0.198242 -0.122925 -0.308749 -0.0419887 -0.950216
0.0368958 0.196655 0.127563 0.0170094 -0.787503 -0.616076
0.0681152 -0.370605 -0.0731201 0.359433 -0.346117 0.866609
-0.0407104 -0.0503235 0.0601807 -0.956676 -0.120378 0.265105
0.0591125 0.467529 -0.0183563 0.766255 0.423259 -0.483431
0.0877685 -0.279297 -0.0998535 0.982367 0.0135 -0.186476
-0.0228119 -0.0508728 0.0831909 -0.591195 -0.140429 0.79421
-0.0410767 0.0935669 -0.23645 0.251906 -0.491198 0.833827
0.0892334 -0.00588989 -0.0220032 0.777216 -0.62709 0.0519023
0.0415955 0.185181 -0.192505 0.966487 -0.115042 -0.229496
0.00144669 0.10498 -0.105164 -0.32065 0.20649 -0.924416
0.0727539 -0.194946 -0.0808105 0.927961 0.00568934 0.372633
0.0140457 -0.140747 -0.0395508 -0.34836 -0.252186 0.9028
0.0341187 0.208496 -0.120605 0.484028 -0.874631 -0.0271392
0.0736084 0.204712 0.0638428 0.641961 0.00272043 0.766732
0.0207214 0.463135 0.0529785 0.0369952 0.294478 0.954942
0.0409241 0.210693 -0.118103 0.595093 -0.765374 -0.245084
0.0911865 0.30542 -0.052948 0.931746 0.218155 -0.290273
0.015564 0.199829 0.128052 -0.0957533 -0.901329 -0.422417
0.0997315 0.261475 -0.0135117 0.978566 0.0492788 0.199952
0.0214386 -0.0697021 0.000393153 0.249873 -0.236597 -0.938928
-0.00318717 0.143921 -0.176636 -0.215428 -0.530253 0.820013
0.0203095 -0.482666 -0.160889 0.262352 -0.896798 -0.356265
-0.0360718 0.242432 0.0662842 -0.850942 0.232314 0.471093
0.0769043 -0.207397 0.0364685 0.956952 -0.0493144 -0.286027
0.055542 -0.392334 0.0864258 0.0879279 0.00174774 0.996125
0.0651855 0.437012 0.030365 0.868256 -0.0525265 0.493327
-0.000612249 0.0316467 0.0971069 -0.386576 0.00396045 0.922249
0.00517655 0.150513 -0.252197 0.546185 0.198676 -0.813763
0.0889892 -0.412598 0.0261841 0.588133 -0.0391128 -0.807818
0.0336914 -0.26416 -0.0716553 -0.535444 -0.336117 0.774806
0.0824585 -0.355713 0.0874634 0.479407 -0.0483502 0.87626
-0.0155563 -0.144653 0.0753174 -0.629426 -0.0600067 0.77474
0.000788705 0.323975 -0.112061 -0.798601 0.552953 -0.237654
0.0239105 0.145752 -0.17041 0.320719 -0.74935 0.579322
-0.00797269 -0.285156 -0.101685 0.0529244 0.462452 0.885063
0.0940551 0.315918 -0.0229645 0.951306 0.308243 -0.00150852
0.0787353 0.263184 0.0714111 0.907065 -0.138084 0.397701
0.0512695 -0.151123 -0.118164 0.377256 -0.0841809 -0.922275
0.00191405 0.441895 -0.0351257 -0.249899 -0.00152955 -0.968271
0.00814823 0.134399 0.0924072 -0.197182 0.0405657 0.979527
0.0535888 0.0345154 0.0848999 0.480747 -0.0279831 0.876413
-0.0364075 0.22583 0.0667114 -0.785288 -0.00454482 0.619114
-0.0114975 0.129028 0.0869141 -0.395827 -0.0218541 0.918065
-0.0501709 -0.0140076 -0.0739746 -0.99909 0.00130736 -0.0426386
0.0132218 0.00150204 0.0964355 -0.0472928 -0.0504927 0.997604
0.06427 -0.114868 0.076355 0.807082 0.119599 0.5782
-0.0430298 0.0946655 0.0512085 -0.794673 0.00721944 0.606994
-0.0654297 0.101685 0.0167542 -0.928558 0.094107 0.35906
0.00608443 0.324463 -0.11731 -0.690339 0.62112 -0.371002
0.0574951 -0.113831 -0.0825806 0.88533 0.280156 -0.371084
-0.0453491 0.137451 -0.0714111 -0.656216 -0.0203494 -0.754299
0.0808716 -0.497559 0.0802612 0.216275 -0.734951 0.642706
0.0152207 0.263672 0.172852 -0.460292 0.556008 0.692088
0.0536499 -0.0859985 0.00652695 0.414599 -0.0177977 -0.90983
0.0415039 -0.0505676 -0.11145 0.649438 -0.039048 -0.759412
0.0343018 -0.273682 -0.127075 -0.448356 0.140584 -0.882731
-0.00835421 0.0986939 0.0847168 -0.513021 -0.0341521 0.857696
0.0219574 0.135132 -0.106018 -0.0399959 0.127254 -0.991064
0.0164184 -0.290039 0.061554 -0.734223 -0.108931 0.670112
0.0466309 -0.15564 0.00895691 0.101825 -0.113541 -0.988302
0.0900879 -0.421631 0.0749512 0.707109 0.197718 0.6789
-0.0508118 0.0295563 -0.0207214 -0.865944 -0.49967 0.0216836
0.0249634 0.044281 -0.117432 0.206084 0.0101695 -0.978481
0.0568848 -0.350586 0.0745239 -0.459698 0.173824 0.870898
0.0855102 0.287109 -0.0698853 0.88171 0.0178448 -0.471454
-0.0492249 0.175415 0.0540466 -0.835986 0.108827 0.537851
0.0422058 0.133301 0.21521 0.953999 -0.298854 -0.0239076
-0.0755615 0.0384216 -0.00460434 -0.746791 -0.647404 -0.15222
0.10083 0.215576 0.0119324 0.99086 0.134574 -0.00928791
0.0942993 -0.0166321 0.0321045 0.827045 -0.560572 -0.0418955
-0.0148087 0.213257 0.126709 -0.965126 -0.252371 -0.0695775
0.0637818 -0.0673218 0.0150146 0.848102 -0.0622688 -0.526162
0.0952759 0.263672 0.0130081 0.998777 0.0382278 0.0313626
0.0836792 0.333984 -0.00417328 0.895766 0.434543 0.093673
0.00167945 0.281494 0.12854 -0.849046 0.255471 0.462446
-0.0138778 0.218384 -0.115051 -0.783011 -0.62051 0.0431311
0.0207367 -0.373291 0.0257721 -0.190497 0.31971 -0.928168
0.0554199 -0.0214691 0.0050621 0.441716 -0.843174 -0.306504
0.0650025 -0.168945 0.0797729 0.685936 0.0774514 0.723529
0.049591 0.0606689 0.0842896 0.54815 -0.015229 0.836241
0.101074 -0.484131 -0.125244 0.724315 -0.565155 -0.394927
0.0935058 -0.332031 0.0375977 0.894093 0.146167 -0.42336
0.0585022 0.356201 0.0628052 0.554582 0.784853 0.276486
0.060852 -0.398438 0.0769043 0.167197 0.0836363 0.98237
0.0626831 0.426514 -0.0189972 0.808708 -0.24231 -0.535982
0.030014 0.340576 0.114563 0.0213524 0.865006 0.501307
-0.0115433 -0.143921 0.076355 -0.482879 -0.0569941 0.873831
0.0587769 -0.260742 -0.124023 0.182283 0.122262 -0.975615
0.0725098 0.0610352 0.0715942 0.566751 0.0978831 0.818054
0.00978089 -0.081604 0.00159645 -0.365011 -0.340068 -0.866672
-0.0291748 -0.0774536 -0.109314 -0.442244 0.0090176 -0.896849
0.0320435 0.133423 0.189087 0.68663 -0.471733 -0.553179
-0.0310822 0.041687 -0.100098 -0.657849 0.0592939 -0.750812
-0.0362549 0.201416 -0.0732422 -0.656199 -0.0322735 -0.753897
0.00925447 0.0908203 0.248779 0.703068 -0.664448 0.253384
0.0223084 0.251709 -0.194702 0.00665487 0.705589 -0.70859
-0.0197296 0.280518 -0.116821 -0.930144 0.323905 -0.172969
0.0686035 -0.325928 -0.0773926 0.595927 -0.0176791 0.802844
0.0629272 -0.0548401 -0.0401001 0.928265 -0.000419108 0.371918
0.0524292 0.270508 -0.161255 0.83011 0.278884 -0.482847
0.0984497 -0.482666 -0.0985107 0.728263 -0.562853 0.390935
-0.0392151 -0.46167 -0.166016 -0.427927 0.737965 -0.52181
-0.0217285 -0.460693 0.0681152 -0.698674 0.65735 -0.282394
0.0548706 -0.292236 -0.130615 0.115357 0.199886 -0.973005
0.0434875 -0.434082 0.0354614 -0.512466 0.0341592 -0.858028
0.0121994 -0.374512 -0.0946045 -0.556662 -0.78421 0.274121
0.000363806 0.211304 0.178223 -0.936504 0.0170801 0.35024
-0.0334167 0.345215 0.0292206 -0.952739 -0.119744 0.279196
0.0749511 0.1073 -0.0822144 0.570065 0.12976 -0.811288
-0.000951315 0.0194244 0.0977783 -0.373471 -0.0608785 0.925642
0.0978393 0.230225 0.00116348 0.993662 0.1048 0.040667
0.104065 0.0732422 0.00215149 0.995096 0.0988718 -0.00281358
0.0467834 -0.442383 -0.0878906 -0.369437 -0.12539 0.920757
0.09021 -0.399414 -0.108459 0.999692 0.00357455 0.0245379
0.0233155 0.188599 0.137695 -0.108819 -0.757659 -0.643515
0.0246582 0.239624 -0.205811 0.131154 0.700071 -0.701925
-0.00445176 0.236328 0.165283 -0.918858 0.23149 0.319552
-0.0128631 0.0708008 0.0847778 -0.537676 0.119526 0.834637
-0.000166744 0.312744 0.115784 -0.830542 0.416427 0.369849
0.0801392 -0.229126 -0.0726929 0.830144 0.164048 0.532869
-0.00946807 0.15918 -0.170532 -0.308286 -0.483859 0.819049
-0.0158691 0.211914 -0.13623 -0.853862 -0.317873 0.412161
0.0969849 0.130127 -0.0378418 0.962008 0.0760383 -0.262218
0.0983887 -0.460449 -0.112854 0.981809 0.18455 0.0446316
-0.0165863 0.124939 -0.273682 0.418266 0.021045 -0.908081
0.0690308 -0.361328 -0.0721436 0.509132 0.0572977 0.858779
0.0741577 -0.484131 -0.139771 0.00733043 -0.882561 -0.47014
0.0436707 -0.302979 0.0797119 -0.480463 -0.213817 0.850551
-0.0275574 0.25415 0.0734863 -0.824861 0.262626 0.500631
0.0720825 0.442871 0.00127506 0.988052 0.121429 -0.0949083
0.0241546 0.20105 -0.128662 0.109048 -0.868137 0.484197
0.0359497 0.10791 0.100586 0.257556 -0.0440349 0.96526
0.0461121 0.012764 0.0822754 0.538665 -0.110695 0.835216
-0.00357434 0.160034 0.203125 -0.960976 0.26906 -0.064279
0.0795899 -0.0171509 -0.0265503 0.547894 -0.798022 0.250945
-0.0878906 0.0959473 -0.258789 -0.869463 0.294071 0.396933
-0.0366211 -0.0395508 -0.0518188 -0.809838 -0.381769 0.445438
-0.0737915 0.0634155 -0.0279083 -0.979211 0.0507602 -0.196391
-0.00941466 -0.469238 -0.176147 0.261521 0.467042 -0.844677
0.0452881 0.429443 -0.0341187 0.47802 -0.176966 -0.860337
0.0567017 0.0396423 -0.105164 0.529907 0.0198405 -0.847824
-0.00260734 0.149048 -0.173584 -0.213407 -0.526669 0.822847
-0.0112458 -0.0259704 0.0911865 -0.449172 0.0190008 0.893243
0.0661011 0.263916 -0.124634 0.981175 -0.0733713 -0.178638
-0.0115814 0.217407 0.103516 -0.83663 -0.429978 0.339366
0.0863037 -0.244019 -0.0950928 0.932827 0.222745 -0.283229
-0.0172577 0.20105 -0.184448 -0.953898 0.233286 -0.188828
-0.0429993 0.242676 0.0509033 -0.88019 0.249388 0.40382
-0.0128631 0.0708008 0.0847778 -0.537676 0.119526 0.834637
0.0394287 -0.0551453 -0.0191803 0.716089 -0.190967 0.671378
0.0276184 -0.123047 0.0921021 0.0359995 -0.00592622 0.999334
-0.0183258 0.268555 0.0791626 -0.865763 0.279408 0.415194
-0.00585554 0.164673 0.173096 -0.93811 -0.0979401 -0.3322
0.0396118 0.338135 -0.122681 0.295716 0.816542 -0.495793
0.055481 0.444824 0.0422974 0.692898 0.0926312 0.715061
-0.00511933 0.236206 0.161743 -0.924889 0.215428 0.313324
-0.0304108 -0.0628662 0.0755005 -0.711831 -0.0876443 0.696861
0.0417785 0.185181 -0.188354 0.965374 -0.138115 -0.221309
-0.021759 0.177124 0.0786743 -0.629786 0.130267 0.765768
0.104614 0.175659 0.0204163 0.994298 -0.0251793 0.103624
0.0957641 0.00712584 0.0297852 0.932407 -0.241131 0.269207
0.0607605 0.341064 -0.0895386 0.660251 0.633559 -0.403326
0.0644531 -0.00873567 -0.0869141 0.626945 0.00120313 -0.779063
0.102844 -0.442139 0.0612488 0.984038 0.159197 -0.0795344
0.0430298 -0.481445 0.0572205 -0.082703 -0.927395 -0.364827
-0.09021 0.0934448 -0.271484 -0.910386 0.403084 0.0933885
0.0841065 -0.244263 0.072876 0.806511 0.16528 0.567647
0.0467834 -0.290527 0.0157776 0.116425 0.00159731 -0.993198
-0.0217132 0.272949 0.0750732 -0.856502 0.322541 0.402954
0.0808106 -0.264648 0.0294647 0.656991 0.030252 -0.753291
-0.0737915 0.0634155 -0.0279083 -0.979211 0.0507602 -0.196391
-0.0430603 -0.0314941 0.0523376 -0.985445 -0.0959231 0.140346
0.0599365 -0.188477 0.0884399 0.54071 -0.120762 0.832496
0.0140305 0.339355 0.0791016 -0.732887 0.650654 0.198812
-0.0481873 0.0800171 -0.243408 0.18237 -0.530457 0.827863
-0.0281372 -0.00717926 0.0768433 -0.699493 0.109743 0.706163
0.0632935 0.211548 0.161621 0.985667 -0.164365 0.0380095
0.053711 -0.0793457 0.00611877 0.559726 -0.107217 -0.821712
0.0935669 0.0197601 0.0350037 0.869602 -0.33778 0.360134
0.0078087 -0.250488 -0.0789795 -0.643063 -0.483546 0.593846
0.0753784 0.272705 -0.0836792 0.876063 -0.131334 -0.463967
0.0301514 -0.274902 -0.0795288 -0.641671 -0.0957202 0.760983
-0.000928873 -0.17688 0.0354004 -0.652479 -0.206812 -0.729041
-0.0156174 -0.148682 -0.120178 -0.448797 0.0543417 -0.89198
0.0264435 -0.204346 -0.0560913 -0.468621 -0.334992 0.81742
-0.0330505 0.155395 -0.261963 -0.318577 0.551542 -0.770915
-0.076416 0.0283813 0.259277 -0.579044 -0.75174 -0.315587
0.0184173 0.0978393 0.237793 0.756422 -0.624433 0.194704
-0.0290528 0.295898 0.00843811 -0.882666 0.464781 -0.0698541
-0.0403442 0.167358 -0.243164 -0.775782 0.607463 -0.170739
-0.0127793 -0.132812 0.0766602 -0.570019 -0.0489258 0.820174
-0.0483398 0.249268 0.022583 -0.967951 0.234697 0.0893744
-0.0530701 -0.471924 -0.150757 -0.827698 0.550388 0.109494
0.00494005 -0.207275 0.0396118 -0.60558 -0.0110388 -0.795708
-0.0148392 0.0709839 0.237549 0.263747 -0.787326 -0.557276
0.0162964 -0.275879 -0.106689 -0.62142 0.00312581 -0.783471
0.0992432 0.235352 -0.0479736 0.8702 -0.00263448 -0.492691
0.0464173 0.233276 -0.189209 0.773486 0.213274 -0.596853
-0.0373535 0.181763 -0.0759277 -0.621058 -0.0383464 -0.782826
0.101196 -0.43457 0.0683594 0.95654 0.180889 0.228715
0.0222626 0.0986328 0.233276 0.766337 -0.631417 0.118492
0.0129318 0.304932 0.139771 -0.703596 0.432452 0.56386
-0.025528 0.436768 -0.0271912 -0.488428 0.0458946 -0.871396
0.045929 0.148804 -0.0918579 0.488768 0.029713 -0.871908
-0.0361938 -0.484619 0.103699 0.196931 0.927656 -0.31729
-0.00975799 -0.455811 0.078125 -0.430307 0.870091 0.240369
0.067688 0.263184 -0.103149 0.961397 -0.174407 -0.212835
0.0317688 0.193115 -0.102844 0.283451 -0.678577 -0.677634
-0.0481873 -0.465332 0.0825195 -0.636116 0.762831 -0.115956
-0.0202332 0.279053 0.0742188 -0.872832 0.287175 0.39458
0.0543518 -0.366211 0.0822754 -0.419928 0.411905 0.8087
0.0567627 -0.0841675 -0.0788574 0.842613 0.0867239 -0.531491
0.0248261 -0.382812 -0.129395 -0.231704 0.764335 -0.601751
0.0551453 0.0274811 -0.102783 0.49491 -0.291779 -0.818492
0.0218658 -0.432129 -0.126099 -0.504986 0.82382 -0.257507
-0.069397 0.103821 -0.288086 -0.207888 0.411972 -0.887165
-0.0654907 0.0526428 0.294678 -0.139727 -0.339895 0.930026
0.0755005 0.041626 -0.0892334 0.680403 0.0347786 -0.732013
0.0671997 -0.0910644 0.0494385 0.97147 -0.0454248 0.232771
-0.0557556 0.0484924 0.259766 0.784817 -0.436268 -0.44015
0.00497818 0.299316 0.12561 -0.818995 0.291507 0.494238
0.0385437 -0.44458 0.0366211 -0.429675 0.0245275 -0.90265
0.0673828 -0.480225 -0.0947876 -0.224334 -0.714281 0.66293
0.0900268 -0.308594 0.0679321 0.847625 -0.0746431 0.52532
0.0354004 -0.464355 -0.09729 -0.308643 -0.301589 0.9021
0.0890503 -0.235107 0.0499268 0.990159 0.0880796 -0.108753
-0.0625 0.0823364 0.281494 -0.78107 0.458452 0.423971
-0.0367737 0.115356 -0.209106 -0.609154 0.0285591 0.792537
-0.062561 0.162964 0.00656128 -0.988721 0.0759513 0.129085
0.053833 0.0795899 0.0805664 0.579694 0.00147731 0.814833
-0.0161438 0.0787964 0.280273 0.552069 -0.319193 0.770283
0.0681152 -0.355713 -0.0722046 0.475273 0.0852993 0.875694
0.0667725 -0.134521 -0.0803223 0.949878 0.0930259 -0.298458
0.0963135 0.294189 -0.0430908 0.958061 0.182263 -0.221132
-0.048584 -0.00278091 -0.011116 -0.922737 -0.385057 -0.0169464
-0.0558167 0.429443 0.0109406 -0.950506 0.269362 0.154865
0.0637818 -0.0673218 0.0150146 0.848102 -0.0622688 -0.526162
0.00427249 0.354248 -0.0381165 -0.471397 0.180723 -0.863206
-0.0551147 0.116394 -0.230713 -0.793714 -0.0223025 0.607882
-0.0609436 0.104431 -0.0496826 -0.828701 0.205993 -0.520406
0.0122452 0.176636 0.0998535 -0.0282811 -0.169223 0.985172
-0.00590896 0.162476 0.174683 -0.971346 -0.125967 -0.20154
-0.01651 0.292725 -0.0944824 -0.888935 0.377138 -0.259926
0.0897827 0.0229187 0.057373 0.763696 -0.29167 0.575932
-0.0784302 0.0643921 -0.247437 0.017022 0.159133 0.98711
-0.0254669 0.220703 -0.142578 -0.984263 -0.0628033 0.165173
0.0679932 -0.186645 0.0670166 0.875258 -0.202111 0.439403
-0.0707398 0.0613403 0.252197 -0.544943 0.154791 -0.824061
0.0315247 0.166138 -0.155762 -0.0759543 -0.622172 0.779188
0.0553589 -0.0475464 -0.026062 0.755891 -0.237324 0.610168
0.0302276 -0.355225 -0.0692139 -0.450784 -0.233907 0.861442
0.0623779 0.468018 -0.00268745 0.865085 0.490975 -0.102815
0.093811 -0.44043 -0.0962524 0.772642 -0.121729 0.623063
0.0659179 0.445557 -0.0170288 0.87138 0.0281053 -0.489803
0.0169372 -0.216919 0.0296021 -0.517418 0.0560761 -0.853893
0.0336914 0.393066 -0.0253754 0.568936 0.271625 -0.776229
-0.0138245 0.209961 0.0881348 -0.739231 -0.461356 0.4906
0.00629041 0.233398 0.193848 -0.87045 0.306874 0.384896
-0.0476685 0.128296 -0.216797 -0.689888 0.222409 0.688904
-0.0110931 0.213257 0.151001 -0.992289 -0.0133093 0.123229
-0.090332 0.0928345 -0.263916 -0.912834 0.328359 0.242724
0.0124359 -0.122498 -0.0345154 -0.269677 -0.243742 0.931592
0.017395 0.300537 0.147583 -0.557701 0.558674 0.613884
-0.0249481 -0.0488892 0.0818482 -0.645472 -0.120403 0.754234
-0.0244445 0.304199 0.0109863 -0.908062 0.415632 -0.051701
-0.0550842 0.212769 0.0200348 -0.985675 0.162336 0.0457296
-0.0085373 0.152588 0.213989 -0.936129 0.28249 -0.209431
0.041687 -0.243164 0.0891724 0.0662799 -0.0121435 0.997727
-0.0621643 0.130371 -0.237793 -0.874447 0.226265 0.429124
-0.0277863 0.302246 -0.0454712 -0.859841 0.505885 -0.0689497
0.021225 -0.342041 0.0292206 -0.247234 0.118733 -0.961654
0.0203552 -0.481689 -0.118286 -0.453244 -0.714303 0.533237
-0.0613708 0.0614624 -0.282715 0.67877 -0.459714 -0.572656
0.0231018 0.336914 -0.125366 -0.298738 0.786114 -0.541092
0.0439148 -0.343506 0.027298 -0.331314 -0.12751 -0.934865
0.104675 0.219238 -0.0400696 0.977912 -0.0122127 -0.208659
0.00217247 -0.146118 -0.12384 -0.0127058 0.0161757 -0.999788
0.0817261 0.130249 0.0655518 0.694824 -0.0124152 0.719073
0.0875244 -0.414551 0.026001 0.588133 -0.0391128 -0.807818
0.0119553 0.343262 -0.074707 -0.662332 0.745603 -0.073428
0.0725098 -0.191528 -0.0823364 0.921202 -0.0834128 0.380038
-0.0464783 0.154785 -0.24353 -0.88893 0.458043 0.000677113
-0.0413513 -0.0716553 -0.069397 -0.865794 -0.25214 0.432233
0.0938721 0.252686 -0.0548706 0.838194 0.00368329 -0.545359
0.0387573 -0.469727 0.0997314 0.231734 0.00764958 0.972749
0.0737305 -0.359131 -0.0735474 0.604452 -0.0125953 0.796542
0.0778809 0.276123 0.090271 0.97215 -0.113264 0.205171
-0.00201609 0.134888 -0.262207 0.66965 0.010866 -0.742598
-0.0673218 0.109253 0.00741959 -0.973707 0.1207 0.193198
0.0673828 0.262207 -0.103333 0.96287 -0.138122 -0.231955
-0.0382385 0.4021 0.0281677 -0.633126 -0.329135 0.700586
-0.0378418 0.112366 -0.212891 -0.652082 -0.142132 0.744706
0.038086 -0.178589 -0.118835 0.239942 0.0829864 -0.967234
0.0640869 -0.396484 -0.081604 0.0393426 -0.211064 0.97668
0.110779 0.0302887 -0.0147781 0.944653 -0.30726 -0.114986
0.0134506 -0.443359 -0.11908 -0.511145 0.755507 0.409805
0.0740967 0.261719 0.0770264 0.919532 -0.251735 0.301811
-0.0275269 0.47876 -0.0111847 -0.706331 0.573102 -0.415514
0.102417 -0.470215 -0.110779 0.987972 0.0908582 0.125124
0.0725098 0.291748 -0.0957642 0.943163 0.00869333 -0.332217
0.0194855 -0.480957 -0.170532 0.415341 -0.38453 -0.824396
0.0950317 0.138062 -0.0487061 0.913226 0.116264 -0.390514
-0.042511 0.268799 0.0149689 -0.940163 0.338883 0.0353636
-0.036377 0.158081 -0.204834 -0.922363 0.0797765 0.377998
0.0017204 -0.334473 -0.0859985 -0.880584 -0.192802 0.432897
0.0962524 0.2771 -0.0482178 0.931151 0.0230172 -0.363907
0.0295105 -0.433594 -0.0960693 -0.650995 0.0800759 0.754847
0.0832519 0.148682 0.0646973 0.654417 0.0337474 0.755381
0.00967406 -0.19519 -0.0646362 -0.560436 -0.334795 0.757512
0.103271 0.20459 0.0188141 0.996515 0.0834056 -0.000922108
-0.0251007 -0.459961 0.0765381 -0.599238 0.720602 -0.348777
0.0315857 -0.34375 0.052002 -0.88445 0.128678 0.448543
0.00243948 -0.0646362 -0.118347 -0.236144 -0.0813059 -0.968311
-0.0224915 0.488037 0.0192108 -0.629152 0.720044 0.292751
-0.0681152 0.0476074 -0.287842 0.364983 -0.614771 -0.699173
-0.0545959 0.211548 0.0266571 -0.979809 0.144858 0.137805
-0.0626831 0.148193 -0.0450134 -0.952167 -0.004709 -0.305541
-0.0320129 0.40625 -0.0217133 -0.58149 -0.265552 -0.768994
0.0668945 -0.0252686 -0.0380554 0.65883 -0.665023 0.351691
-0.0349121 0.114441 0.24292 -0.840209 0.436351 -0.321943
0.0284576 0.48999 0.0285797 0.186949 0.878316 0.440013
-0.0446167 0.108093 0.274902 -0.37696 0.773444 0.509594
0.0998535 0.0841065 0.0391846 0.88333 0.0795377 0.461955
-0.0316162 0.205322 0.067627 -0.70235 -0.0219585 0.711493
0.0570373 -0.12384 -0.0980225 0.874114 0.23548 -0.424822
-0.0525208 0.415283 0.00359726 -0.957107 -0.0135883 -0.289416
0.0350036 -0.0322876 -0.106567 0.54005 0.116054 -0.833593
0.0306854 -0.289795 0.0758057 -0.544214 -0.199415 0.814901
0.0687256 -0.34082 -0.134399 0.187616 -0.00533137 -0.982228
-0.0297699 0.47998 0.00284195 -0.74956 0.656555 -0.0842319
0.0708618 -0.378906 0.0170135 0.483984 0.0884752 -0.870593
0.100708 0.212524 0.0358582 0.982295 0.0234918 0.185863
0.0149231 0.363525 -0.0436401 -0.185837 0.640653 -0.745002
0.0861816 -0.439941 0.0447998 0.733142 -0.00426567 -0.680062
0.102783 0.124512 0.0152588 0.991659 0.0398606 0.122575
0.0365906 -0.412598 -0.0960083 -0.743459 0.144915 0.652892
0.032959 -0.0472107 -0.0034771 0.385644 -0.690786 -0.611633
0.0335388 -0.482178 -0.161377 0.283069 -0.752026 -0.595255
-0.0240631 -0.197754 -0.110413 -0.929241 -0.174826 -0.325496
-0.0323181 0.136963 -0.217651 -0.767213 0.0548248 0.639045
0.0696411 0.301758 -0.10675 0.943569 0.126994 -0.30586
-0.053894 0.0293732 0.027771 -0.91229 -0.384271 0.141642
-0.0722656 0.0621033 -0.257324 0.0964895 -0.167804 0.981087
-0.0374146 0.00798033 -0.0992432 -0.731524 0.0791024 -0.677211
-0.0414124 0.085083 0.24646 -0.598271 0.0495391 -0.799761
0.0332031 -0.411865 0.0673218 -0.762769 -0.0244484 0.646208
0.0622559 0.320312 -0.11261 0.820726 0.413087 -0.394676
0.0568237 0.426514 -0.0260468 0.69318 -0.22281 -0.685461
0.0152893 0.157715 -0.168213 -0.0773758 -0.499432 0.862891
-0.0110169 -0.25708 -0.112549 -0.932661 -0.071392 0.353619
0.0226288 0.356445 0.0605469 -0.416663 0.769872 0.483414
-0.00290487 0.220215 -0.213745 -0.563742 0.597326 -0.570435
0.0692139 -0.176514 -0.0607605 0.927389 -0.10741 0.358346
0.0726318 0.281494 0.1073 0.985739 0.0831809 0.146283
-0.0157929 0.45752 -0.0288544 -0.403576 0.176476 -0.897765
-0.0277405 -0.0727539 0.0337219 -0.831458 -0.304104 -0.464971
0.0411987 0.255615 0.187012 0.178503 0.598738 0.780801
0.0466003 0.489258 -0.00239945 0.660546 0.741707 -0.116405
0.0525513 -0.42749 -0.0871582 -0.376963 0.00631529 0.926207
-0.0722046 0.0317078 0.247437 -0.473736 -0.562325 -0.677764
0.0132141 -0.483643 -0.132568 -0.102168 -0.982605 0.155077
0.0272064 0.348145 0.0910034 -0.35079 0.910294 0.219797
-0.0552368 0.0934448 -0.0610962 -0.743747 0.258627 -0.616403
0.00222398 0.266113 -0.15918 -0.631801 0.520567 -0.574315
-0.0482178 0.00182913 -0.0190125 -0.977556 -0.210168 0.0146061
0.0186767 -0.0605774 -0.00490189 0.116919 -0.339131 -0.933445
0.0182343 -0.25415 -0.074646 -0.522648 -0.465306 0.714374
0.0314636 -0.362549 0.0632935 -0.624619 0.354218 0.695974
-0.00956729 0.264404 0.12085 -0.925201 0.273097 0.263477
0.0284119 -0.295898 -0.121704 -0.633415 -0.081017 -0.76956
0.0721435 -0.0380554 0.0536804 0.825894 -0.560257 0.0633314
-0.0149613 0.223511 -0.185425 -0.937924 0.293779 -0.18437
0.0034866 -0.078125 0.0913086 -0.31683 -0.0687407 0.945988
-0.0254059 0.126343 0.0780029 -0.586022 -0.00776108 0.810258
0.0219879 -0.243286 0.0870972 -0.350643 0.0298284 0.936034
0.0432129 -0.0657959 0.0950317 0.313191 -0.0355914 0.949023
0.0692139 0.273193 -0.105408 0.961318 -0.173215 -0.214157
-0.0365601 0.142822 -0.0755005 -0.560996 0.102663 -0.821428
0.0596008 -0.121704 -0.0870361 0.903752 0.211702 -0.372041
0.102234 0.0967407 0.0294342 0.97404 0.0266199 0.224806
0.0976563 -0.371582 0.057312 0.992537 -0.0965574 -0.0744786
-0.0151519 0.304687 -0.0890503 -0.875427 0.388277 -0.287869
0.0699463 -0.194946 -0.0725098 0.931163 -0.146673 0.3338
-0.036438 0.0406494 -0.0950317 -0.698668 0.0135865 -0.715317
-0.00169179 0.211792 0.174561 -0.927947 0.0369313 0.370879
0.0534668 -0.454834 0.0939941 0.172004 0.0683338 0.982723
0.0187531 -0.255371 -0.109802 -0.548766 -0.209323 -0.809346
-0.0279846 0.187988 -0.0811768 -0.601399 -0.0906087 -0.793794
0.101501 0.189087 -0.02948 0.994309 -0.0615125 -0.0869772
-0.0393066 -0.0280762 -0.0357666 -0.833821 -0.490356 0.253562
0.0405579 -0.157837 0.0861206 0.305951 -0.0424985 0.951098
0.0976563 0.252686 0.0218811 0.995764 0.0785657 -0.047759
-0.0480652 -0.469727 -0.16626 -0.733743 0.658549 -0.167134
0.0370789 0.354248 -0.0900269 0.0151224 0.962915 -0.269381
-0.000104666 0.105957 0.274902 0.470267 0.0313047 0.881969
0.0703735 0.307617 0.110168 0.893734 0.286464 0.34522
0.0953369 -0.334717 0.0494385 0.996727 0.066442 -0.0460413
0.0297394 0.190674 0.235107 0.286204 0.364627 0.886078
0.0109864 -0.373291 -0.112183 -0.940379 0.124898 -0.316367
-0.00546266 -0.466064 0.102112 0.276127 -0.291436 0.915871
0.0112839 -0.200073 0.0345764 -0.593128 -0.106244 -0.798067
0.050293 -0.0853272 -0.0292206 0.528058 -0.10261 0.842986
0.0698242 0.0803223 0.0730591 0.556575 0.0323759 0.830166
0.0258789 -0.368896 -0.112427 -0.532897 0.403443 -0.743811
-0.0119095 -0.0842896 -0.113525 -0.255892 0.0507083 -0.965375
0.0874024 0.265625 0.0585327 0.842516 -0.0401432 0.537173
0.0293427 0.191528 0.234741 0.286204 0.364627 0.886078
-0.0390625 0.168213 -0.245483 -0.634451 0.618005 -0.464265
0.0308533 -0.203979 -0.0533142 -0.327804 -0.350643 0.877265
0.0852661 -0.00100516 -0.0670166 0.812208 -0.173609 -0.556936
0.0632325 -0.111084 0.0732422 0.809421 0.230545 0.54008
-0.0133057 -0.456787 -0.124817 -0.534849 0.637984 0.553998
-0.0273285 0.0599671 0.269531 0.429099 -0.89556 0.117671
-0.0551147 0.218872 -0.0183563 -0.98568 0.165324 0.0331991
0.00979611 0.338135 -0.0827026 -0.669778 0.739236 -0.0701979
-0.0319214 0.0827636 -0.250977 0.493344 -0.702173 0.513386
0.0272827 0.139282 -0.185669 0.654512 -0.633818 0.412177
0.0541992 -0.217651 -0.116394 0.268787 0.0741607 -0.960341
-0.0413208 0.463379 -0.000237823 -0.944039 0.292153 -0.15309
0.0859985 0.205322 -0.0626221 0.757686 -0.0226551 -0.652226
0.0351563 -0.381348 -0.120239 -0.450984 0.482711 -0.750736
0.0870361 -0.0146332 -0.0486145 0.841304 -0.53583 -0.0713717
-0.0120926 0.234985 -0.183838 -0.879955 0.445695 -0.164424
-0.000111622 0.35791 0.0452881 -0.490658 0.274526 0.826977
-0.0166778 0.321777 0.0402222 -0.902248 0.336365 0.269829
0.0537415 0.408691 0.025238 0.737463 -0.458021 0.496351
0.00765226 -0.203247 -0.12561 0.0388123 -0.0461736 -0.998179
0.109802 0.02948 0.0204163 0.944471 -0.295395 0.143929
0.0248108 -0.403076 0.0695801 -0.879706 0.0159595 0.475249
0.0484314 -0.438721 0.03302 -0.276394 -0.0260691 -0.960691
0.0251465 -0.379395 0.0224762 -0.220751 0.112119 -0.968864
0.0183411 0.147217 -0.170776 0.233336 -0.747174 0.622323
-0.0418091 -0.0349731 0.0351257 -0.965626 -0.22683 -0.126941
-0.00177952 0.151001 0.0895386 -0.289835 -0.0430705 0.956107
0.0604859 -0.19397 -0.118591 0.460879 0.0606438 -0.885388
0.09729 0.0203705 -0.027771 0.90251 -0.420087 -0.0948854
0.0892944 0.0287781 -0.0750732 0.748744 -0.271931 -0.604512
0.0663452 0.271973 0.148804 0.885155 0.271589 0.377808
0.0439148 -0.418701 0.0897827 -0.0947106 0.24605 0.964619
0.0717163 -0.483398 -0.142578 -0.0633271 -0.741272 -0.66821
0.0874634 0.26001 0.0574951 0.807464 -0.0463086 0.588097
-0.00847627 0.202881 0.161865 -0.99223 0.0266593 0.121528
-0.0610657 0.181885 0.00382614 -0.987565 0.107599 0.114625
0.0492554 -0.45459 -0.0947266 -0.261485 -0.256486 0.930505
-0.00608823 0.466309 0.0452576 -0.379605 0.271695 0.884354
0.0269928 -0.0145187 0.0932007 0.336462 0.0637338 0.939538
0.0610047 0.201538 0.18103 0.985193 -0.067401 0.157644
0.0104981 0.076477 -0.108948 -0.165527 0.181218 -0.969413
0.0175781 0.188232 -0.147705 -0.274376 -0.699626 0.659728
0.0686645 -0.139526 0.0464783 0.967332 0.246123 -0.0607643
-0.0135041 -0.19751 0.0495605 -0.733762 -0.236152 -0.637045
-0.032196 0.34375 0.0287476 -0.92714 -0.132291 0.350585
-0.0596924 0.0875855 -0.295898 0.11013 -0.000721926 -0.993917
-0.0761108 0.0608825 -0.0183716 -0.991923 0.000973861 -0.126838
0.0215302 0.246338 -0.203979 0.109459 0.690286 -0.715209
0.0619507 -0.0191345 -0.0179138 0.58229 -0.775619 0.243626
0.00851439 0.119385 -0.234131 0.791481 -0.513098 -0.332097
-0.0182037 0.317383 0.0419617 -0.887502 0.306741 0.343876
0.0183106 -0.484131 0.0661011 -0.0998625 -0.951662 -0.290461
-0.0475159 -0.0287628 -0.086853 -0.948933 -0.098597 -0.299676
0.00317956 -0.295166 0.0324402 -0.906145 0.00306489 -0.422957
-0.0558167 0.130371 0.0383301 -0.914302 -0.00562522 0.404995
-0.0188446 0.265137 -0.135742 -0.782492 0.447157 -0.43331
-0.0213623 -0.0823364 0.0793457 -0.563215 -0.138912 0.814551
0.0625 -0.266113 0.0215454 0.303958 0.0103534 -0.952629
0.0195008 -0.339844 -0.0737915 -0.485619 -0.0858965 0.86994
0.0663452 0.286377 0.135376 0.877763 0.337684 0.339854
0.0577698 -0.396729 0.0793457 0.145086 0.128492 0.98104
0.032135 0.15271 0.241821 0.7466 -0.030082 0.664593
0.0060654 0.331543 0.0863647 -0.794125 0.595567 0.121098
0.0909424 -0.448486 0.0828857 0.796686 0.0360811 0.603315
0.0747681 -0.286133 -0.123596 0.534985 0.17477 -0.826587
0.00709152 0.0242309 -0.113586 0.145175 -0.0752764 -0.986538
-0.0240021 0.118164 0.0795898 -0.571757 -0.034626 0.819692
-0.0272675 -0.0359192 -0.00430679 -0.682476 -0.723398 -0.104507
0.0333862 0.313965 0.143311 0.0334349 0.562753 0.825949
0.0517883 0.21936 -0.175171 0.963429 -0.17393 -0.203843
-0.0391846 0.42749 0.0306091 -0.74448 0.104189 0.659465
0.0109482 0.139526 -0.246948 0.829981 -0.117413 -0.545294
0.0314026 -0.104187 -0.122376 0.235739 0.133684 -0.962578
0.0831909 0.23584 -0.0690308 0.834998 -0.0315863 -0.549345
-0.0508423 0.0274963 -0.0314941 -0.865038 -0.491619 0.100103
-0.009552 0.232544 -0.165283 -0.888695 0.283842 -0.360076
0.0756226 0.34668 -0.0419006 0.763404 0.634428 -0.121305
0.10498 0.0516968 -0.0377808 0.978759 0.0707686 -0.192412
0.0614013 -0.325195 0.0905762 0.0338735 -0.250414 0.967546
0.0288544 -0.293701 0.0182495 -0.209041 -0.195918 -0.958081
0.0272522 -0.098999 0.0011158 0.0914165 -0.160162 -0.982849
0.0361023 -0.379883 0.0198669 -0.252799 -0.0394381 -0.966715
0.0538635 0.325195 0.125 0.626517 0.569523 0.532091
0.0644531 -0.426514 0.093811 0.0502754 0.318059 0.946737
0.0673828 0.256836 0.156616 0.887592 0.287025 0.360273
0.0674438 0.121399 0.0733032 0.617492 -0.0265962 0.786128
-0.0135041 0.371338 0.0244904 -0.877205 -0.0837499 0.472754
-0.0156402 0.239624 -0.155151 -0.812651 0.328106 -0.481607
0.0585327 0.186768 0.180664 0.974825 -0.219922 0.0367488
0.0406799 -0.0870361 -0.0242462 0.757399 -0.254958 0.601118
0.0567322 -0.0369873 -0.0977173 0.714392 -0.0760856 -0.695597
0.0405579 -0.171021 -0.0401917 -0.0486966 -0.226467 0.972801
-0.0733032 0.0274658 0.262939 -0.524129 -0.851638 0.00104092
0.0944214 0.276367 -0.00012505 0.974844 0.080267 0.207935
0.00483703 -0.484863 0.0722656 -0.0990976 -0.949515 -0.29766
0.0291138 -0.411133 -0.132446 -0.790439 0.0352688 -0.611524
0.0202942 0.485596 0.0371094 0.106838 0.737492 0.666851
0.100708 0.139404 -0.01651 0.992586 0.0102001 -0.121118
0.0583191 0.148926 0.0783691 0.632234 0.0376386 0.773863
0.032135 -0.470215 -0.16394 0.320572 0.0417536 -0.946303
0.0195465 0.467529 0.0514526 0.0673983 0.374 0.924976
-0.0294189 0.21814 -0.081665 -0.748716 -0.21349 -0.627572
-0.0176391 0.163086 -0.258057 -0.0111104 0.438614 -0.898607
0.0888672 -0.397949 0.0447998 0.841495 -0.11581 -0.527707
-0.0500793 0.437988 0.00553894 -0.973626 0.222598 0.0500339
0.00189305 0.177246 0.190796 -0.968525 0.221477 0.113613
0.101807 0.173828 -0.00335693 0.996126 -0.0126412 -0.087022
0.00830841 -0.376465 -0.111816 -0.940379 0.124898 -0.316367
-0.108154 0.052887 -0.266113 -0.989473 0.0663494 0.128611
0.0124512 -0.0038948 -0.114075 0.265199 0.199876 -0.943249
0.0490417 -0.481445 0.0504456 -0.0668309 -0.795683 -0.602015
-0.0549927 0.216797 0.0102539 -0.984593 0.171208 0.0355559
0.0491638 0.283936 -0.153931 0.496654 0.493355 -0.714098
-0.067749 0.0563965 0.290771 -0.0807538 -0.585589 0.806576
0.0170441 -0.134277 0.00978851 -0.320308 -0.155356 -0.934488
0.0237732 0.354492 -0.0523682 -0.470272 0.720675 -0.509384
0.0166016 -0.269043 -0.106995 -0.540853 -0.0569056 -0.83919
