ply
format ascii 1.0
element vertex 814
property float x
property float y
property float z
property float nx
property float ny
property float nz
element face 0
property list uchar int vertex_indices
end_header
-0.0109953 0.287749 0.104106 -0.941689 0.229797 0.245794
-0.0162279 0.207446 -0.186108 -0.956042 0.270027 -0.114321
0.00396617 -0.294389 -0.0944551 0.0607623 0.770971 0.633965
-0.01262 -0.145986 0.040126 -0.773701 -0.139088 -0.618095
-0.0392784 0.42834 0.0301949 -0.721836 0.0300045 0.691413
0.0802916 -0.410816 0.0748773 0.4246 0.126557 0.896492
0.0861496 -0.411792 0.023864 -0.127285 -0.17837 -0.975696
0.0322378 0.39246 -0.0246474 0.338446 0.0116275 -0.940914
0.0721148 0.349258 0.0155042 0.818066 0.571589 0.0636812
-0.0127802 0.276277 -0.134973 -0.761388 0.392312 -0.51612
0.00601802 -0.182354 -0.121853 -0.053628 0.0450802 -0.997543
0.0567987 -0.45768 0.0922072 0.207166 0.0440739 0.977312
-0.0494383 0.0264735 -0.0257305 -0.668404 -0.721863 0.179303
-0.0133065 0.0659997 -0.104829 -0.383619 0.204071 -0.900662
0.100795 0.274812 -0.016074 0.99473 0.0850593 0.0572507
0.0273257 -0.406423 0.0500419 -0.906291 -0.35006 -0.236843
-0.0430312 -0.0620828 -0.0855461 -0.987123 -0.146993 -0.0630966
-0.0105377 -0.482332 -0.146323 -0.00177078 -0.960929 -0.27679
0.04313 0.342668 0.10972 0.244031 0.840897 0.483054
0.0106212 -0.476718 -0.111968 -0.192911 -0.60805 0.770104
0.0492931 -0.38836 -0.0777354 -0.259948 -0.683826 0.681769
0.0479812 0.171932 0.226392 0.730359 0.0118053 0.682962
0.0222152 0.371957 0.0472044 0.235246 0.365324 0.900665
0.0692469 0.445914 -0.00870577 0.92592 0.151038 -0.346207
0.0434046 -0.224459 0.0173348 -0.0532746 -0.014447 -0.998475
-0.043916 0.141665 -0.0698638 -0.631021 0.0183354 -0.775549
0.063694 0.360241 -0.0185606 0.772768 0.600735 -0.204809
0.0864547 0.306055 -0.0632735 0.890883 0.0764561 -0.447752
0.019332 -0.056896 -0.121304 0.197001 -0.0413639 -0.97953
-0.0482485 0.0962659 0.0450382 -0.816459 0.0118901 0.577281
-0.044099 0.0910182 -0.286548 0.428697 -0.0431924 -0.902415
-0.0309491 -0.121029 -0.0849969 -0.965471 -0.2259 0.129748
-0.0695142 0.0433915 0.248115 -0.775253 -0.0492479 -0.629728
0.0567681 0.47374 0.0219571 0.77574 0.538129 0.329613
-0.0273946 -0.485505 0.0811624 -0.0834889 -0.989457 -0.118339
0.0635109 -0.336615 -0.134973 0.0233867 0.0867204 -0.995958
0.060826 -0.0956441 -0.0406348 0.828633 -0.0347497 0.558713
0.0744337 -0.202613 -0.107269 0.930205 0.332342 -0.155777
-0.0322305 -0.0739208 0.0745722 -0.787035 -0.111019 0.606837
0.0910923 0.323629 -0.0192318 0.940866 0.331237 0.0710838
0.0792543 0.308008 0.0791488 0.928594 0.117395 0.35204
0.0548155 -0.0015407 -0.094211 0.615523 -0.122293 -0.778573
0.0114908 0.245278 0.187949 -0.615073 0.5944 0.518048
-0.0165024 -0.484529 0.110025 0.0211153 0.142777 0.98953
-0.029088 0.165219 -0.174758 -0.892323 -0.181668 0.413227
0.0677824 0.106212 0.0746332 0.613068 -0.0109479 0.789955
0.0475845 0.271395 0.170497 0.368583 0.56027 0.741785
0.0580191 -0.0323047 -0.0261272 0.783063 -0.450344 0.428955
0.0224135 -0.32734 -0.106659 -0.490606 -0.0703143 -0.86854
-0.0443126 -0.0197191 -0.0554934 -0.985412 -0.124888 0.115611
-0.0433974 0.0114243 0.0458315 -0.822878 -0.245577 0.512409
0.0286681 0.353407 0.0761588 -0.377916 0.892256 0.247099
-0.0064569 -0.255335 0.0627037 -0.816041 -0.497696 0.293897
0.0015444 -0.468419 -0.174026 0.248134 0.508395 -0.824599
-0.0401937 -0.469884 -0.17244 -0.363768 0.383309 -0.848969
-0.0115064 -0.164048 -0.0718774 -0.783809 -0.231458 0.576255
-0.00906555 0.461292 -0.0295901 -0.396785 0.233556 -0.887701
0.053351 0.445426 -0.0291782 0.605563 0.0538122 -0.793976
-0.0464179 -0.0257297 -0.0609547 -0.989216 -0.0260838 0.14412
-0.00917232 -0.146474 -0.0566833 -0.724472 -0.284242 0.62797
0.000953022 -0.478671 0.0527573 0.0116694 -0.520763 -0.853621
-0.0159075 -0.0411526 0.0900104 -0.541305 -0.0501323 0.83933
0.0453878 -0.0512821 -0.105805 0.807956 -0.165005 -0.565668
0.0909092 0.20354 -0.0538153 0.837184 -0.0827745 -0.540621
-0.0156329 0.0969982 -0.234925 0.42864 -0.806037 0.408132
0.0993301 0.236369 -0.00700482 0.992996 0.0261035 0.115226
0.0284698 -0.239714 -0.121304 -0.230796 0.0858947 -0.969204
-0.00176214 -0.162706 -0.0574155 -0.661554 -0.30405 0.685492
0.0533204 -0.169296 -0.0442656 0.63678 -0.0983031 0.764753
-0.0499875 0.114572 -0.222477 -0.61042 -0.451434 0.650842
0.0619854 -0.126093 0.0134447 0.693983 -0.17804 -0.697631
0.0634499 0.359997 -0.0205743 0.772768 0.600735 -0.204809
-0.10814 0.0498597 -0.265313 -0.886729 -0.459895 -0.046996
0.0612837 -0.191874 -0.0525949 0.775156 -0.085126 0.626009
0.0860275 0.125312 0.0602934 0.770013 -0.0126544 0.637903
-0.0261285 0.175715 -0.213079 -0.855321 0.499366 0.13806
-0.0228486 0.242838 -0.151326 -0.746848 0.28008 -0.603136
0.0513373 0.45104 0.0468688 0.574586 0.284502 0.767404
0.047737 -0.184063 -0.0448453 0.411211 -0.210179 0.886978
0.00783337 0.0189375 0.101238 -0.178388 -0.0752932 0.981075
0.00701337 -0.115659 0.0933666 -0.216776 -0.147776 0.964972
-0.0494689 0.198048 0.0483333 -0.861428 -0.000141893 0.50788
-0.0347324 0.0590128 -0.091099 -0.665198 0.103104 -0.739514
0.0635109 -0.308057 0.0890341 -0.0611352 0.180581 0.981658
0.0558834 0.0208139 -0.0907328 0.577979 -0.156482 -0.800908
0.0217575 0.488873 0.0334443 0.192432 0.827515 0.527436
-0.0394615 -0.0293756 -0.0392009 -0.870235 -0.414982 0.265485
0.0521916 0.473984 0.0309882 0.660553 0.555953 0.504565
0.0543578 -0.42839 0.0335053 -0.209652 0.141841 -0.967433
0.104273 0.185234 0.0263201 0.98983 0.03296 0.138382
-0.0561201 0.0470833 -0.067667 -0.773886 -0.141973 -0.617207
0.00493868 -0.48282 -0.122158 -0.0956803 -0.91874 0.383096
0.0345566 -0.484773 0.0836643 0.15845 -0.983958 0.0819759
-0.00698705 -0.452066 -0.142661 -0.412916 0.858011 -0.305479
-0.00298637 -0.476474 -0.114348 -0.250154 -0.471412 0.845691
-0.0693311 0.102673 -0.00897274 -0.970147 0.233455 0.0656779
0.0468828 -0.249233 0.0212249 0.115268 0.0338854 -0.992756
-0.0128336 0.325338 -0.0324886 -0.877098 0.442694 -0.186333
0.0139393 -0.169906 -0.122342 0.0659932 0.0178399 -0.997661
-0.0471196 -0.00438004 -0.0787118 -0.94501 0.0941505 -0.313195
0.0206897 -0.162706 0.08879 -0.289475 -0.225989 0.930125
0.0803526 -0.0148832 0.000286198 0.40209 -0.902809 -0.152509
0.0496287 0.206835 -0.153401 0.937791 -0.345807 -0.0310783
0.0703452 0.294827 -0.106537 0.958523 0.0738652 -0.275276
-0.00156383 0.323873 0.063497 -0.822364 0.447826 0.350955
0.0243204 0.192068 0.235057 -0.0984967 0.549265 0.829823
0.00921779 0.331684 0.104411 -0.693547 0.685265 0.22227
0.0591785 0.291898 0.148285 0.631291 0.489614 0.601457
-0.0313153 0.293363 -0.0115585 -0.879875 0.47417 0.031341
-0.048279 0.17303 -0.0628464 -0.731848 0.0650107 -0.67836
-0.0673785 0.0371674 -0.02181 -0.569223 -0.813552 -0.118825
-0.0428177 0.031462 -0.0858512 -0.831952 -0.0683999 -0.550615
-0.0205145 -0.0500312 0.0859831 -0.539127 -0.0893323 0.837473
-0.0169296 0.127997 0.0841525 -0.528723 -0.0158255 0.848647
0.00332163 0.482039 0.0416821 -0.130878 0.738549 0.661374
0.0113154 -0.33271 -0.105073 -0.531003 -0.179005 -0.828247
0.00505693 0.326314 0.104533 -0.754033 0.608546 0.247195
0.0752879 -0.299758 -0.125698 0.415145 0.161274 -0.895346
0.0408417 -0.0862469 -0.023488 0.498609 -0.200807 0.843247
0.110985 0.0338418 -0.0139383 0.995376 -0.0656831 -0.0700881
-0.000707663 0.116403 -0.254817 0.725318 -0.328558 -0.604949
0.0653415 -0.112486 -0.0633345 0.9947 0.102815 -0.00054456
0.0420316 -0.301467 0.0787216 -0.398478 -0.0927517 0.912476
0.0471574 0.253333 0.185996 0.42415 0.580647 0.694943
0.0798035 -0.230439 0.0352749 0.837055 0.0225665 -0.546653
0.0698571 -0.204322 -0.0825561 0.902517 0.357805 0.239664
-0.0787893 0.102612 -0.26751 -0.901515 0.431979 -0.0258057
-0.0155871 -0.0830738 -0.111602 -0.225835 0.073912 -0.971358
0.0511847 -0.410572 0.0836033 0.0189511 -0.290946 0.956552
-0.0480044 -0.0293299 -0.0640058 -0.989975 -0.0445774 0.134026
0.0313378 -0.266563 0.0176857 -0.0770569 0.145221 -0.986394
-0.0164872 0.067159 0.0839084 -0.582502 0.110279 0.805314
0.00597602 -0.324655 0.0376242 -0.6378 -0.126917 -0.759673
0.0721759 0.0659997 -0.0828001 0.605726 0.069126 -0.792665
-0.0321085 0.423703 -0.0233507 -0.665276 0.0583721 -0.744312
-0.0509334 0.115304 0.0431466 -0.877553 -0.0395604 0.477844
-0.052642 0.147279 -0.242247 -0.900313 0.427605 -0.081179
0.0650975 -0.382502 0.0855559 0.277162 -0.244774 0.929122
-0.0192637 0.11323 0.209306 -0.651575 -0.181272 -0.736607
0.0423367 0.426876 -0.0333124 0.401255 -0.24199 -0.883423
-0.0191111 0.167782 -0.165483 -0.593695 -0.424221 0.683786
0.102259 0.0653285 0.0374411 0.948919 0.0374693 0.313286
0.013535 0.0761901 -0.108246 0.0619784 0.160415 -0.985102
0.0625041 -0.162462 -0.0796271 0.98117 0.0648163 -0.181945
-0.0171279 0.0762512 0.236399 0.142707 -0.736281 -0.661456
0.0201862 -0.0447834 -0.118802 0.30658 0.0704845 -0.949232
0.0741285 0.346085 0.0387836 0.788873 0.608702 0.0846214
0.0359906 -0.45353 0.0405227 -0.333668 -0.042524 -0.941731
0.0174556 0.179498 -0.0915871 -0.164417 -0.256001 -0.952591
0.0172115 -0.0529296 0.100994 0.104442 0.123416 0.986844
0.00261416 0.335345 0.0613917 -0.749741 0.398099 0.528589
0.0291563 0.316307 0.141451 -0.176889 0.634736 0.75221
-0.0575541 0.193655 0.0178687 -0.983181 0.0989599 0.153502
-0.0518792 0.155822 -0.0607412 -0.729537 0.0172295 -0.683724
0.0749828 -0.222262 -0.0709011 0.787293 0.348855 0.5084
-0.0323831 0.10963 0.225415 -0.830944 0.0977836 -0.547695
-0.0174178 0.127386 0.272889 -0.252625 0.515353 0.818897
-0.0200874 0.469102 0.0374106 -0.621868 0.304792 0.721375
0.0337023 -0.0544247 -0.116484 0.657853 -0.0530364 -0.751277
-0.0157397 0.239542 -0.154011 -0.709266 0.281458 -0.646315
0.0717487 -0.342229 0.0871425 0.340649 0.0461554 0.939057
-0.0114073 0.270175 0.119361 -0.876792 0.263076 0.402526
-0.0435193 -0.476718 -0.135217 -0.393005 -0.919506 -0.00753561
0.0835257 -0.247281 -0.0842036 0.966719 0.0890229 0.239852
0.0495677 -0.299026 -0.0612598 -0.199781 -0.0661962 0.977602
-0.0368071 0.346573 0.0115073 -0.965576 0.252689 -0.0617394
0.0481948 -0.123958 0.00762489 0.275632 -0.0589115 -0.959456
-0.0760434 0.046412 -0.0258984 -0.963147 -0.185215 -0.195049
-0.0762265 0.0413168 0.0198367 -0.812662 -0.512486 0.27738
0.0986588 0.0165729 0.023925 0.86929 -0.41266 0.272115
-0.0664021 0.107311 0.0101115 -0.94472 0.211724 0.250356
-0.00713575 0.211839 0.10789 -0.761333 -0.646781 0.0452445
-0.04535 -0.0517702 -0.0810916 -0.987572 -0.115357 -0.106744
-0.0510249 0.231 0.0329866 -0.971288 0.209036 0.11359
0.0967672 -0.382502 -0.107575 0.998763 0.0284853 0.0407655
0.0105373 0.000833393 -0.114226 0.105161 0.131306 -0.985748
0.0204456 -0.252162 -0.0707181 -0.413785 -0.28371 0.865038
0.00492345 -0.171005 -0.121853 -0.038153 0.0143941 -0.999168
0.0174556 -0.334906 -0.106049 -0.489507 -0.0612933 -0.869843
-0.0449534 -0.0133653 0.00880716 -0.932384 -0.348678 -0.0953086
-0.0481875 0.0665489 -0.0792609 -0.75088 0.0944149 -0.653656
0.0086686 0.119454 -0.243468 0.799293 -0.48544 -0.35423
0.0352278 0.164365 0.169398 0.0990572 -0.483513 -0.869714
0.0168606 0.27823 0.161588 -0.388622 0.535248 0.749988
0.0928009 0.18499 -0.0549442 0.790841 0.0153598 -0.611829
0.0359906 -0.328072 -0.121182 -0.668689 -0.116398 -0.734375
0.0689418 -0.452798 -0.0873767 0.00737772 -0.291439 0.956561
0.0359601 -0.172591 0.0909868 -0.116016 -0.234745 0.965109
-0.0678666 0.0374115 0.0072397 -0.494847 -0.868034 -0.0405438
-0.0461128 0.0892486 -0.0699248 -0.730117 0.262783 -0.630773
-0.0491333 0.235271 0.0403091 -0.940408 0.209777 0.267633
0.0398959 0.190726 0.132908 0.0848779 -0.88848 -0.450998
-0.00689551 -0.23471 -0.104768 -0.998043 -0.0625203 0.00073504
-0.00217975 -0.325387 -0.0992757 -0.633304 -0.0423285 -0.772745
0.0276307 -0.20896 0.0869594 -0.0178947 0.0671768 0.997581
0.0882853 0.0895536 0.0582797 0.772463 0.0431643 0.633591
-0.0114911 0.145327 -0.0861563 -0.341101 0.102082 -0.934467
0.0447165 -0.267539 0.0174111 0.102733 0.132171 -0.985889
0.0352278 -0.279011 -0.127284 -0.374936 -0.00353852 -0.927044
0.0203845 -0.315624 0.0604459 -0.710507 -0.442366 0.547258
0.0463336 -0.308057 0.0837253 -0.441575 -0.0143115 0.89711
-0.0181195 0.0689897 0.248969 0.474897 -0.823221 -0.311095
0.029202 0.0320722 0.100811 0.286035 -0.0407984 0.95735
0.0596361 -0.18089 -0.113616 0.73779 0.146248 -0.658997
0.0150452 -0.143057 -0.121853 0.0211088 0.0322472 -0.999257
0.0450521 -0.155139 -0.120145 0.368969 -0.0370833 -0.928702
0.0822443 -0.287066 -0.0807254 0.882074 0.0461598 0.468845
0.0559139 -0.261437 0.0204774 0.145604 0.0967413 -0.984602
0.0596666 -0.166733 -0.101656 0.887292 0.176671 -0.426029
0.0610701 0.236736 0.183799 0.853701 0.235319 0.464563
0.0435266 0.186577 -0.15035 0.741359 -0.634035 0.219969
0.0450827 -0.3764 -0.122464 -0.434635 0.41145 -0.801125
-0.0493469 -0.483553 0.0879357 -0.341515 -0.925425 0.164185
0.0878582 -0.414477 0.025893 -0.122967 -0.129288 -0.983953
0.024717 -0.309278 0.0256794 -0.393819 -0.332233 -0.857046
0.101771 0.192801 -0.00490724 0.998267 0.0372281 -0.045565
0.0772406 -0.464758 -0.139244 0.534849 -0.168378 -0.828001
0.0777897 -0.0301537 -0.0583614 0.883694 -0.446275 -0.141149
-0.0168076 0.17364 0.085678 -0.669788 0.106385 0.734892
-0.0703074 0.0372589 -0.0273629 -0.559682 -0.820207 -0.118393
0.0655246 -0.223727 -0.0586054 0.639187 0.249063 0.727604
-0.0792165 0.0549244 0.27948 -0.961059 0.129237 0.244259
0.00192481 0.194631 -0.13778 -0.184228 -0.788576 0.586693
-0.0226808 0.134709 -0.270927 0.335646 0.372244 -0.865318
0.0536561 0.444938 0.0454043 0.684421 0.00698357 0.729053
-0.0509639 0.15094 -0.252133 -0.764168 0.51863 -0.383497
-0.0120632 -0.206763 0.0747553 -0.988945 -0.145875 0.0266053
0.104578 0.186332 0.0221554 0.997979 0.0613092 0.0167065
0.00203735 0.266514 -0.153279 -0.634489 0.491059 -0.596896
0.0113001 0.460559 -0.036699 -0.181035 0.270451 -0.945559
0.0718097 0.435419 0.00367761 0.988742 -0.149591 -0.00345033
0.063694 -0.0485056 0.0195163 0.85285 -0.144729 -0.501698
0.0539612 -0.116879 -0.101045 0.848525 0.243587 -0.469756
0.104334 0.0692338 -0.0322445 0.977645 0.107319 -0.180812
0.0866988 -0.243985 -0.088353 0.991269 0.115379 -0.0638204
0.0686366 0.357557 -0.00197443 0.82987 0.554585 -0.0612591
0.00871434 0.343156 -0.0497574 -0.639245 0.679983 -0.359151
0.0469743 -0.410572 0.0864712 0.0556632 -0.448473 0.892061
0.0923127 -0.485505 -0.111724 0.426345 -0.88841 -0.170171
-0.0338171 -0.0549738 0.0363122 -0.872619 -0.307165 -0.379718
0.0675383 -0.0521059 0.0274337 0.959206 -0.136125 -0.247779
-0.0332679 -0.120113 -0.102937 -0.930278 -0.308862 -0.197956
-0.0530386 0.17364 -0.0579647 -0.849732 0.122139 -0.512872
-0.0449534 -9.52497e-05 0.0457704 -0.951793 -0.105667 0.287965
0.00868383 0.148378 0.257756 0.159337 0.461213 0.872866
0.0441674 0.403444 -0.0187132 0.599545 0.117266 -0.791704
0.0354414 0.173884 -0.145224 0.242843 -0.641141 0.727988
0.0112009 0.481795 0.0428415 -0.0795009 0.678942 0.729875
-0.00863081 0.307275 -0.103913 -0.853281 0.45366 -0.257109
-0.0559676 0.13654 0.0378072 -0.906566 -0.0457596 0.419576
0.00320148 0.186332 0.142549 -0.0528495 -0.724963 -0.686757
0.101283 0.228315 -0.0176911 0.992689 0.0358412 0.115257
0.0177454 -0.38836 0.0353359 -0.918755 -0.293589 -0.264
-0.026159 0.260168 0.0754875 -0.871615 0.184494 0.454146
0.0511847 0.139347 -0.0878038 0.57364 -0.0218279 -0.818816
0.0506661 0.266514 -0.163531 0.695886 0.431634 -0.573964
0.0890786 -0.0188038 0.0447941 0.924611 -0.187349 0.331654
-0.0201027 0.270907 0.0794539 -0.923465 0.190665 0.332956
0.0223525 -0.398856 0.0368919 -0.78967 -0.53418 -0.301785
0.0868819 -0.0126331 -0.0294833 0.654656 -0.745801 0.123313
0.069491 0.292631 0.128026 0.845751 0.368469 0.385922
0.103907 0.248207 -0.0331293 0.987189 0.057226 -0.148939
-0.0244352 -0.00485678 -0.109039 -0.505732 0.11197 -0.855393
-0.00175833 -0.118832 0.0872035 -0.47359 -0.167879 0.864598
-0.0290575 0.480574 0.00626718 -0.777503 0.628655 -0.0167739
0.0969502 0.15509 -0.0467064 0.967113 -0.0333609 -0.25215
-0.046967 0.385626 -0.00129367 -0.661121 -0.542688 -0.518082
0.0211626 -0.393486 0.0441229 -0.941551 -0.329863 -0.0683518
-0.0487367 0.0164509 -0.0591546 -0.962468 -0.244371 -0.118058
-0.0430617 -0.0145476 -0.0335565 -0.959999 -0.246895 0.13208
0.0589954 -0.220065 -0.0543035 0.230386 -0.012119 0.973024
0.00676932 -0.12048 0.0927564 -0.287309 -0.165969 0.943349
-0.0487367 0.00172201 -0.0696197 -0.985201 0.0668925 -0.157812
0.0448081 0.148744 0.190634 0.795804 -0.546475 -0.260884
0.0488659 0.369028 -0.0323971 0.667109 0.606511 -0.432562
-0.0153888 0.220748 -0.159869 -0.900698 0.24157 -0.361091
-0.00773835 0.131292 0.194173 -0.774779 -0.153517 -0.613311
0.0186607 0.403444 -0.0281561 0.0761189 -0.252473 -0.964605
-0.0384242 -0.0323047 -0.102022 -0.903682 0.0065244 -0.428155
-0.0126581 0.218307 -0.169633 -0.921204 0.319028 -0.222721
0.106469 0.0604468 0.0205079 0.986546 0.104603 0.125638
0.0923127 -0.365417 -0.0997639 0.96632 -0.0265608 0.255971
-0.0143896 0.141909 -0.183789 -0.533335 -0.470241 0.703155
-0.0215519 0.360241 0.0123845 -0.895305 0.25637 0.364286
0.0834037 -0.420335 -0.114043 0.990045 -0.0281248 -0.137916
-0.0532217 0.12342 -0.276541 -0.301169 0.593688 -0.746212
0.0578055 0.429317 -0.0242966 0.708876 -0.263137 -0.654411
0.062199 -0.350039 0.0271134 0.0590815 -0.0437741 -0.997293
-0.0156177 0.453237 0.0430855 -0.48573 0.136523 0.863382
-0.00151809 -0.241056 -0.0816408 -0.790677 -0.347466 0.50408
0.0131002 0.12702 -0.188427 0.41287 -0.832166 0.370186
-0.0329628 -0.0791685 -0.0593377 -0.889674 -0.112987 0.442395
0.0485609 0.220504 -0.101289 0.693387 -0.260843 -0.671696
0.00903471 -0.155017 -0.0457911 -0.535423 -0.290848 0.792925
0.0871869 -0.273641 -0.100252 0.987347 0.145137 -0.063883
0.0186912 0.399295 0.0443975 0.0295757 -0.102252 0.994319
-0.0708566 0.040249 -0.0383161 -0.713881 -0.494008 -0.496316
-0.0243588 0.142276 0.252631 -0.668357 0.652655 0.356847
0.0704063 -0.419359 0.076952 0.284134 0.371547 0.883867
0.0308496 0.152649 -0.10251 0.0184757 -0.00965035 -0.999783
0.0674772 -0.26217 -0.12222 0.44428 0.148421 -0.883508
0.0530459 -0.0141052 -0.0952484 0.656036 -0.128922 -0.743637
0.0382789 0.27286 0.172205 -0.124073 0.613819 0.779636
0.00872957 -0.448405 -0.115507 -0.657089 0.512239 0.553033
0.0946925 0.120613 -0.0511304 0.922446 0.0797133 -0.377808
-0.033512 0.291166 0.0146423 -0.901745 0.430621 0.0377155
-0.0211706 0.0995 -0.0885361 -0.536269 0.261283 -0.802588
-0.00953087 0.280426 0.0891562 -0.977672 0.177695 0.11217
-0.0442516 -0.00547461 0.0493707 -0.968619 -0.0237309 0.247415
0.000184528 0.181817 0.229687 -0.760941 0.635571 0.130454
-0.043855 -0.0188038 0.0219724 -0.964745 -0.263161 -0.00364656
-0.027532 0.246011 -0.129115 -0.999071 0.0127069 0.041173
0.0374856 -0.475254 -0.103547 -0.268866 -0.637546 0.721974
-0.0435499 0.264561 0.0169992 -0.938207 0.340286 0.0630246
-0.0227876 0.306055 0.00741894 -0.926707 0.37512 -0.022344
0.0982927 0.268955 -0.0428011 0.959625 0.0737419 -0.271443
0.0353193 -0.393486 -0.118558 -0.94128 0.320225 0.106992
0.0689418 -0.42839 0.0309119 -0.349072 0.154459 -0.924279
-0.0457161 -0.00618017 -0.0149299 -0.966372 -0.256952 -0.0100519
0.0234051 0.436395 0.0555948 0.0381658 -0.141053 0.989266
-0.0656699 0.0627046 0.0291576 -0.812506 0.171796 0.557063
0.0423062 0.371957 0.0425364 0.417944 0.60242 0.68001
0.0747998 -0.402029 0.032651 0.0210596 -0.135154 -0.990601
-0.0212773 0.355848 0.0116675 -0.935355 0.352911 -0.0237655
0.0132375 -0.45353 -0.154011 -0.146081 0.778971 -0.609806
0.00747869 -0.192606 -0.0640668 -0.609375 -0.2982 0.734669
0.0988419 0.219894 0.00342114 0.997625 0.0636849 0.0262336
-0.00581623 0.479354 0.0406142 -0.306592 0.632417 0.711371
0.0192862 0.106212 -0.105988 0.00337328 0.137337 -0.990519
-0.0238707 0.264561 -0.119168 -0.934525 0.350684 -0.0606895
0.0512458 0.168881 0.217483 0.948408 -0.182401 0.25933
-0.0365935 0.275301 0.0375327 -0.895828 0.338107 0.288401
0.0504525 -0.425949 -0.147177 0.025465 -0.0943994 -0.995209
0.00966015 -0.262902 0.070972 -0.664067 -0.382806 0.642242
0.0495982 0.170955 0.0970278 0.355665 -0.249911 0.900581
-0.0419023 -0.0152494 -0.0936618 -0.864846 0.093224 -0.493305
-0.0521843 0.210131 0.0381123 -0.950119 0.0613792 0.305788
-0.0603611 0.0331401 0.245674 -0.290814 -0.289126 -0.912049
-0.0233368 0.214036 -0.0866444 -0.782282 -0.199758 -0.590027
-0.0180127 0.148866 0.0832982 -0.524138 -0.135445 0.840794
-0.023947 -0.132928 -0.0743183 -0.892202 -0.235451 0.385407
0.0379127 0.292386 -0.157306 0.0770589 0.601162 -0.795403
0.00685319 -0.135369 -0.0413366 -0.460819 -0.212954 0.861566
0.0650365 -0.0997935 -0.0629074 0.985144 0.12274 -0.120111
0.0111247 0.281159 -0.148275 -0.56644 0.50475 -0.651439
0.0928009 0.289946 0.0116751 0.996594 0.0707849 0.0422966
0.0523441 0.364147 0.0447026 0.525602 0.80835 0.265163
0.0632058 -0.108642 0.0157635 0.794478 -0.0188884 -0.606999
-0.0433058 0.0374115 0.0614223 -0.766038 -0.156788 0.62338
0.0128256 -0.136833 -0.0383771 -0.315193 -0.247646 0.916147
0.0460285 0.482527 0.0275253 0.514263 0.740572 0.432536
-0.0594152 0.154846 0.0279982 -0.969675 0.0532222 0.238531
0.0612837 0.241495 -0.132532 0.980631 -0.194914 -0.0192625
0.0558528 0.256018 -0.160846 0.886616 0.192165 -0.420696
-0.0634121 0.0535209 0.246406 -0.191175 0.16157 -0.968167
-0.0754332 0.0572432 -0.271659 0.964922 0.103187 -0.24141
-0.0310711 0.170711 -0.191356 -0.948977 0.310394 0.0556642
-0.0792775 0.102002 -0.263116 -0.861505 0.490445 0.131422
0.0470354 -0.098207 -0.0272103 0.468011 -0.164872 0.868207
-0.0266624 0.335345 0.00605742 -0.765047 -0.639969 0.071721
0.0346177 0.350234 0.0989195 0.00752289 0.927663 0.373342
0.0922517 -0.296829 0.0570288 0.992758 0.0739868 -0.0946408
0.0291105 -0.468908 -0.101472 -0.412003 -0.447875 0.793512
0.0854173 0.305567 0.0632834 0.92507 0.108857 0.363863
-0.0112013 0.0896147 0.0832982 -0.523174 -0.021433 0.851956
0.0555477 0.0717967 0.0818337 0.559153 -0.00564848 0.829046
-0.0240385 -0.165391 0.059134 -0.982225 -0.186555 0.020757
0.0464862 0.446647 -0.0328547 0.432995 0.0440588 -0.900319
-0.00438221 -0.322458 -0.0974451 -0.624333 0.0275552 -0.780672
0.0692469 -0.38055 -0.0771862 0.360563 -0.155373 0.919703
-0.0158312 -0.0017476 0.0878747 -0.502842 0.0968668 0.858933
-0.0514216 0.243448 -0.0174012 -0.975967 0.216193 0.0273547
0.0971944 0.249428 0.0209503 0.995704 0.0921869 -0.00866203
0.0321463 -0.125117 0.0906817 0.183559 -0.0571755 0.981344
0.0836478 -0.315136 0.0300271 0.738201 -0.00627861 -0.674552
-0.0635952 0.140933 -0.0335565 -0.978735 0.0737745 -0.191404
0.023222 0.40198 -0.0282782 0.157196 -0.221067 -0.962507
0.0507271 0.185722 -0.101228 0.536077 -0.119596 -0.835655
-0.019584 -0.204078 0.0664565 -0.95014 -0.310868 -0.0244115
-0.00491236 -0.221896 -0.126186 -0.338728 -0.247851 -0.907653
0.0908482 -0.317576 0.0662124 0.895889 0.147312 0.419144
0.0714436 -0.13964 0.0655412 0.910091 0.188574 0.369019
-0.0416583 0.141909 0.0598662 -0.825691 -0.0568387 0.561253
-0.00582385 0.291898 -0.126796 -0.818137 0.410305 -0.402866
0.081634 -0.413989 0.0292186 -0.122967 -0.129288 -0.983953
-0.0322916 -0.0672085 -0.0555849 -0.860484 -0.18222 0.475777
0.0398654 -0.102723 0.004448 0.174439 -0.0824063 -0.981214
-0.0293778 0.164609 -0.175491 -0.892323 -0.181668 0.413227
0.100245 0.223555 0.0206147 0.99518 0.0926117 -0.0322326
0.0390416 0.28604 0.163296 0.0328778 0.607856 0.793367
0.0871259 -0.349795 -0.0935398 0.917567 0.0855627 0.388264
0.0793153 0.244424 -0.0756607 0.828624 -0.051031 -0.557474
-0.0517877 -0.483065 0.0839084 -0.394414 -0.917411 -0.0528672
0.0528933 -0.204566 0.0904986 0.412499 -0.103003 0.905116
0.0394993 -0.47086 0.0995297 0.308593 -0.13043 0.942209
-0.00482843 0.294827 -0.125087 -0.82957 0.429861 -0.356418
0.093228 0.237346 0.0551066 0.90114 0.0107311 0.433395
0.057775 -0.0680628 0.0101954 0.750734 -0.0341155 -0.659723
-0.100574 0.0577924 -0.259699 -0.723818 0.212102 0.656583
0.0358685 -0.279744 0.0173653 -0.0342172 0.0265901 -0.999061
0.0143588 -0.181256 -0.0523813 -0.562861 -0.331519 0.757154
0.101588 0.102429 0.0344511 0.948995 0.0386904 0.312907
0.00434946 -0.0675746 -0.021215 -0.348651 -0.834186 0.42729
0.0280579 -0.148061 0.0952582 0.0525683 -0.07468 0.995821
-0.0310711 0.230756 -0.0914041 -0.815936 -0.119155 -0.56573
0.0818171 -0.484529 -0.133386 0.327751 -0.641049 -0.694
0.0693689 0.281891 -0.118009 0.962571 0.0323298 -0.269093
0.0688197 -0.223605 -0.0602835 0.778523 0.291238 0.555951
-0.0734195 0.0559313 0.253363 -0.86366 0.145055 -0.482752
0.0884074 -0.0233804 0.0306526 0.807838 -0.57278 -0.139001
0.0116739 -0.165757 0.0209045 -0.57726 -0.223928 -0.785256
0.0589954 -0.13903 0.0811624 0.605747 0.0857455 0.791024
0.0601853 0.347793 -0.076332 0.506833 0.779504 -0.368096
-0.0673174 0.0768614 0.266299 -0.960769 0.272619 -0.0510022
-0.0518182 0.402712 0.00315989 -0.946196 -0.0693397 -0.316079
0.103968 0.0625215 -0.0367295 0.974864 0.0966023 -0.200769
0.0168301 -0.13427 0.094587 -0.241591 -0.105177 0.964661
0.0516424 0.373422 -0.0235033 0.764371 0.537697 -0.355835
0.04014 -0.17613 0.0906817 -0.0184254 -0.102319 0.994581
0.063694 0.249062 0.171473 0.80046 0.358623 0.480265
0.0243661 -0.400809 0.0599272 -0.980401 -0.115576 0.159551
-0.0443126 0.104077 -0.222965 -0.433994 -0.42043 0.796799
0.054724 0.197194 0.215286 0.836113 0.158394 0.525191
0.0171657 0.28067 0.160367 -0.404258 0.528791 0.746295
-0.0448618 -0.0480785 -0.0658974 -0.918562 -0.231596 0.320324
-0.0145345 0.133 0.270205 -0.10013 0.50009 0.860165
0.0032568 0.0811328 0.094709 -0.393946 0.0635001 0.916938
0.0168759 0.328511 0.124243 -0.47381 0.694461 0.541505
-0.00224649 -0.215062 0.0412244 -0.771466 -0.0212697 -0.635915
-0.0272268 0.303126 -0.0316343 -0.852991 0.519426 -0.0510217
0.0671111 0.263829 0.154997 0.87448 0.282863 0.394048
-0.0491638 0.161314 0.0521166 -0.865197 -0.0318152 0.500421
0.103174 0.0929708 -0.00482714 0.998702 0.048463 -0.0156517
0.0648534 0.317039 -0.10788 0.876818 0.334898 -0.345011
0.0194693 0.119942 0.189291 0.15302 -0.667725 -0.728511
-0.0536488 0.0350317 0.00598114 -0.4838 -0.871233 -0.0830066
0.104578 0.154236 0.0141922 0.999905 -0.01351 0.0027141
0.0616498 0.340471 -0.0871326 0.699316 0.590013 -0.403537
0.0458759 0.33803 -0.115995 0.430691 0.715929 -0.549501
0.0643042 -0.13488 0.0790877 0.631806 0.144498 0.761539
0.0713216 -0.171371 0.0355495 0.87411 0.0556355 -0.48253
-0.0858677 0.0902249 -0.2741 -0.91747 0.346052 -0.196208
0.0787661 -0.294633 0.0268845 0.543553 0.0360604 -0.8386
0.0179437 0.274568 -0.167436 -0.435271 0.69944 -0.566853
0.00631929 -0.0602826 -0.120389 -0.171868 -0.0856854 -0.981386
-0.0428786 0.266026 0.0283948 -0.933082 0.314125 0.175165
-0.0448923 0.0722848 -0.247495 0.12756 -0.868744 0.478552
-0.045594 0.192313 -0.0637007 -0.727593 0.0199031 -0.68572
-0.0346104 0.470811 0.014566 -0.869514 0.413932 0.269454
0.0240916 0.193777 0.233958 -0.0984967 0.549265 0.829823
0.0937161 0.115548 -0.0561951 0.915719 0.0952995 -0.390355
0.0528018 -0.238372 -0.123745 0.237428 0.219271 -0.946334
-0.0123302 -0.0433799 -0.0125958 -0.712185 -0.662777 -0.231342
-0.0122691 0.142154 0.202716 -0.962171 0.22014 -0.160517
-0.0154194 0.0695389 0.243111 0.482366 -0.818371 -0.312396
-0.0103012 0.350722 -0.0278663 -0.665146 0.248214 -0.704252
0.087309 0.265537 -0.0634566 0.855212 0.00345499 -0.518267
0.0721148 0.251869 0.137424 0.992781 -0.0431378 0.11192
0.0448691 -0.133416 0.00848299 0.269836 -0.0894812 -0.95874
-0.0105605 -0.190897 -0.0774303 -0.634284 -0.215445 0.742474
0.0456013 0.183159 0.0965397 0.133045 -0.353108 0.926074
-0.0362579 0.158141 -0.203926 -0.985088 -0.00973201 0.171778
0.041513 0.129827 0.216994 0.968149 -0.247143 -0.0401018
0.0384009 -0.374204 0.0260455 -0.125432 0.288761 -0.949149
-0.0354341 -0.484773 0.0785996 -0.260009 -0.924581 -0.278468
0.0215439 0.442986 -0.0384076 0.0451839 0.0124909 -0.998901
0.00949996 -0.092288 0.00588199 -0.295188 -0.200278 -0.934212
0.0416045 -0.420823 0.0409803 -0.492306 0.10202 -0.864423
-0.0367461 0.0622774 0.282165 0.482044 -0.518068 0.706569
0.0550901 -0.364928 -0.131556 -0.378088 -0.0463398 -0.924609
-0.0258691 -0.465246 0.0634054 -0.471026 0.201331 -0.858837
0.0876751 -0.013434 -0.0353566 0.674851 -0.726144 0.131496
0.0542053 0.449576 0.0446416 0.691132 0.137556 0.709518
0.0940213 -0.460121 -0.0986045 0.720934 0.102051 0.685448
-0.0332374 -0.112486 -0.104279 -0.893635 -0.141105 -0.426035
-0.0362579 0.158141 -0.203926 -0.985088 -0.00973201 0.171778
0.0243661 0.161314 0.16708 0.0337734 -0.507702 -0.860871
0.0252967 -0.391533 -0.0963467 -0.825961 -0.452715 0.335913
0.093167 0.0983406 -0.0624192 0.864626 0.115633 -0.488929
0.0863937 -0.285846 -0.0923194 0.953627 0.0453037 0.297563
0.044686 0.0672811 -0.101106 0.427254 0.141282 -0.893025
-0.0177686 0.19634 -0.202218 -0.917515 0.352396 -0.184345
0.0248238 -0.457192 0.0437568 -0.353223 -0.0828113 -0.931867
0.0948145 -0.407643 -0.116362 0.994049 0.073396 -0.0804904
0.0199726 -0.484773 0.0846406 -0.0637584 -0.994492 -0.0831838
-0.0151447 -0.483065 0.114358 -0.0650482 0.295563 0.953106
0.0523441 -0.169662 0.0120489 0.311258 -0.157183 -0.937236
-0.0485536 0.000956401 -0.00554033 -0.985625 -0.168786 -0.00742376
0.0513068 0.378059 -0.0220083 0.762167 0.473225 -0.441769
0.040201 -0.405202 -0.149862 -0.503587 0.132189 -0.853772
0.0208575 -0.427658 -0.118924 -0.824443 0.478922 0.301542
0.00321296 0.184502 0.191 -0.945054 0.192049 0.264556
-0.0568829 0.193777 0.0222622 -0.973759 0.089851 0.209094
0.103663 0.17303 0.0299051 0.978561 -0.0142722 0.205462
0.0879802 -0.353457 0.0817116 0.523631 0.129529 0.842041
0.0131536 0.46178 0.054893 -0.154253 0.264734 0.951904
-0.0028338 -0.187114 0.0793928 -0.358616 -0.0612397 0.931474
0.0227339 0.472275 -0.0341667 0.120608 0.36612 -0.922719
0.0630838 -0.200905 0.0732298 0.741018 -0.0491642 0.669683
0.0618939 -0.397636 -0.153157 0.143679 0.426965 -0.89278
0.0438623 -0.471593 -0.15755 0.324779 -0.338861 -0.883001
0.0707724 0.349258 -0.0507338 0.639339 0.728893 -0.244868
0.0798035 -0.320017 -0.126918 0.550961 0.0747977 -0.831172
0.00413586 0.183159 0.202227 -0.980074 0.197682 -0.0194096
0.0497508 0.342668 -0.0992147 0.521204 0.746795 -0.41309
0.104578 0.0231021 0.0150694 0.934374 -0.334779 0.12194
0.0218185 -0.0684899 -0.0167605 -0.450255 -0.888886 -0.0845733
0.03715 0.11506 0.213577 0.850843 -0.47662 -0.221134
0.0391637 0.00103649 0.0879357 0.415879 -0.159119 0.895392
-0.023413 0.126654 -0.202584 -0.69922 -0.256284 0.66739
-0.0968514 0.0583111 -0.256526 -0.580174 0.217449 0.784929
0.0462726 0.0298754 0.0929394 0.478475 -0.0533149 0.876481
-0.0200874 0.304102 -0.073586 -0.814975 0.523555 -0.248406
0.0168454 -0.257044 0.0226589 -0.489473 0.115314 -0.864361
0.0622295 -0.213231 -0.109954 0.591195 0.231969 -0.77245
0.000223179 -0.10974 -0.118253 -0.121737 0.131572 -0.983803
-0.089651 0.0739934 -0.258967 -0.815535 0.308049 0.489907
0.0533204 0.215867 -0.154866 0.947365 -0.302862 -0.103803
-0.0204383 0.112864 -0.266778 0.592974 -0.265847 -0.760071
0.0671722 0.311181 -0.107514 0.899871 0.28038 -0.334094
0.0258764 0.275545 -0.171097 -0.0603208 0.665426 -0.744022
0.0981707 0.258703 0.0333832 0.996331 0.01021 0.0849748
-0.042543 0.165463 -0.234315 -0.862705 0.50072 0.0708458
0.0760812 -0.357362 0.0317509 0.398514 -0.0947398 -0.912256
-0.0151142 -0.468175 -0.117521 -0.531843 0.260973 0.805628
0.0885294 0.32192 0.0455874 0.946733 0.269635 0.176052
0.0654026 -0.189189 -0.0997639 0.944112 0.29391 -0.149229
0.0883463 -0.256068 0.0484554 0.945137 0.0987344 -0.311397
0.000714225 -0.447428 -0.12521 -0.591846 0.764121 0.256586
0.0323904 0.114267 0.205034 0.686391 -0.605046 -0.403468
-0.00943933 -0.48282 -0.128993 -0.148651 -0.913393 0.378967
-0.0264946 0.473252 -0.0157232 -0.721513 0.383365 -0.576585
-0.0351596 0.12104 0.0693244 -0.789704 -0.0669413 0.609825
0.0107052 -0.293412 0.023864 -0.58361 -0.244195 -0.774447
0.0762032 -0.401785 0.0358851 -0.187597 -0.184521 -0.964759
0.0382484 -0.488922 0.0929394 0.0300862 -0.9412 0.336507
0.0317649 0.412475 0.0470519 0.207216 -0.338305 0.917939
-0.0265556 0.0966931 0.0749383 -0.65822 -0.0576321 0.750617
0.0511847 -0.108031 -0.097018 0.876277 0.310009 -0.368826
0.00445432 0.312401 -0.135339 -0.558438 0.498965 -0.662707
0.0347702 -0.36322 -0.0692536 -0.348152 -0.217829 0.911779
0.00690279 0.276521 -0.146445 -0.611729 0.451101 -0.649843
0.0744946 0.297024 0.0942209 0.966668 0.117965 0.227236
-0.0495299 0.0889434 -0.290454 0.355566 -0.0221402 -0.934389
-0.0123225 -0.10016 0.0308509 -0.723948 -0.248331 -0.643608
-0.0332374 0.136051 -0.217595 -0.773592 0.174107 0.609296
0.0114145 -0.149281 0.0175331 -0.551305 -0.13644 -0.823071
0.0632668 0.0484257 -0.0951873 0.578198 0.0561099 -0.813965
-0.00886724 0.106456 -0.0909159 -0.47736 0.194634 -0.856881
0.0874921 -0.309766 -0.0893904 0.899255 -0.0433353 0.435273
0.0226423 -0.243253 0.0241386 -0.227114 0.100745 -0.968643
0.075471 -0.338567 0.0259997 0.299832 -0.105535 -0.948137
0.0653415 0.227704 -0.0939059 0.777872 -0.12946 -0.614943
0.0691858 0.23881 0.113992 0.955277 -0.291474 -0.0498846
-0.0535878 0.221847 0.00324856 -0.980552 0.190722 0.0462851
0.0391026 -0.105713 -0.120511 0.633183 0.260234 -0.728943
0.0337328 0.00475018 0.0895833 0.346961 -0.186205 0.919209
0.0822443 -0.0160579 -0.0260356 0.647281 -0.749936 0.136469
0.011895 -0.296341 0.0236657 -0.62032 -0.238193 -0.747307
0.0176996 -0.0979629 -0.0246779 -0.173576 -0.701342 0.691368
0.0396213 0.181085 0.235423 0.553232 0.207225 0.806841
0.0117654 0.240641 0.195637 -0.58818 0.517646 0.621358
0.0599107 -0.234588 -0.120389 0.426426 0.248978 -0.869581
0.0522221 -0.0762396 0.00649219 0.517965 -0.0884123 -0.85082
0.0349838 0.169003 0.168056 0.0740727 -0.614825 -0.785177
-0.0276082 -0.172591 -0.097201 -0.930448 -0.170915 0.324121
-0.0122691 0.214158 0.144746 -0.96321 -0.216985 0.158571
0.02101 0.481307 0.0432076 0.0585511 0.663818 0.745599
-0.04834 0.117196 0.0508047 -0.860724 -0.0699911 0.504237
0.0373331 0.209032 -0.109771 0.614356 -0.756806 -0.223185
0.00867622 0.116281 -0.23944 0.786828 -0.5395 -0.299736
-0.0391259 -0.0500922 0.0424143 -0.945538 -0.224734 -0.235482
-0.00421822 -0.0712969 0.00444991 -0.423235 -0.476999 -0.770288
0.0269138 0.188407 0.237131 -0.0336628 0.488222 0.87207
0.0699791 -0.238738 0.0821998 0.546502 0.151775 0.82359
0.0225966 -0.38177 0.0542218 -0.959832 -0.0416571 0.277464
-0.104967 0.0590738 -0.278982 -0.892645 0.290511 -0.344656
0.101283 0.04031 0.0410413 0.890872 -0.111785 0.440285
0.0598191 -0.174788 -0.108246 0.802971 0.133241 -0.580934
0.0230847 0.133855 0.094709 -0.230298 0.0546941 0.971582
0.0436487 -0.46964 0.0403091 -0.143643 -0.457447 -0.877558
0.056341 0.313622 -0.126674 0.748783 0.369997 -0.549934
0.0982927 -0.403493 0.0693244 0.576569 -0.0374356 0.81619
0.0511237 0.209398 -0.138756 0.906919 -0.396318 0.142932
0.022444 0.19634 0.110696 -0.182725 -0.95748 0.223255
0.0298123 0.188407 0.0951362 0.0870127 -0.383563 0.919407
0.0218185 -0.275838 0.020157 -0.377098 0.0503872 -0.924802
0.0114069 0.31533 0.131444 -0.664515 0.432158 0.609638
-0.033573 -0.0950339 0.0684091 -0.96489 -0.222839 0.139036
0.0524662 0.113352 -0.091099 0.463583 0.129086 -0.8766
-0.0373563 0.172298 0.0699346 -0.687896 0.11333 0.716907
0.0206744 -0.17369 -0.123257 0.110407 0.0358816 -0.993239
0.0236797 -0.265587 0.0867764 -0.360846 -0.354107 0.862785
0.0593005 -0.325875 0.0903766 -0.250411 -0.203591 0.946491
0.0661348 -0.483553 -0.138634 0.112946 -0.797466 -0.592699
0.0671722 0.323629 -0.0947602 0.858383 0.358221 -0.367227
-0.0141227 -0.127802 -0.119046 -0.412888 0.0925107 -0.906071
-0.01053 0.143374 0.263858 -0.139871 0.533391 0.834224
0.0584462 -0.166977 0.0147719 0.658658 0.0487098 -0.750864
0.0554257 0.17242 0.186606 0.919287 -0.389891 -0.0538196
0.0995741 0.238932 -0.00824049 0.989991 0.0177869 0.140004
0.0260747 -0.464026 0.0408583 -0.353223 -0.0828113 -0.931867
0.0101636 -0.141837 0.088668 -0.33798 -0.15907 0.927613
0.0177454 0.0277702 -0.113372 0.0955298 -0.0531409 -0.994007
0.0924348 -0.41765 0.0296457 0.646379 0.263006 -0.716256
-0.0213994 -0.0678187 0.0234216 -0.778852 -0.341871 -0.525846
0.0466997 -0.279255 0.0166178 0.101992 0.0603643 -0.992952
0.0738234 -0.000428476 0.0638326 0.738712 -0.127846 0.661786
0.0702232 0.240275 0.118263 0.971602 -0.236393 -0.0103763
0.00472127 0.329975 0.0677379 -0.805256 0.508704 0.304604
0.034038 -0.0931423 -0.119901 0.633667 0.271263 -0.724487
-0.0421159 0.0742985 0.0587068 -0.7582 0.091295 0.645599
-0.0237487 -0.481844 -0.144858 -0.263041 -0.925022 -0.274123
0.0559748 -0.460609 0.0929394 0.248546 0.184277 0.950929
0.0980486 0.0190748 -0.041062 0.913703 -0.301834 -0.272108
0.102198 0.188651 -0.0155248 0.999541 -0.0301731 0.00257648
-0.00997323 -0.301955 -0.0893904 -0.694218 0.0613184 0.717148
-0.0155261 -0.16295 0.0765249 -0.757648 -0.239585 0.607098
0.102259 0.275545 -0.0302003 0.986513 0.132578 -0.0959999
0.0279206 -0.424485 0.0507436 -0.955135 0.0953798 -0.280393
-0.0792165 0.031523 0.265567 -0.915169 -0.364475 -0.172113
0.098964 0.096449 0.0423228 0.872738 0.0455017 0.486064
-0.00100322 0.304347 -0.133874 -0.724581 0.402791 -0.559233
-0.0354951 0.130682 0.0677989 -0.727286 -0.0691236 0.682845
0.0897498 -0.378109 0.0386615 0.729347 -0.0977694 -0.677121
0.072542 0.263097 0.141085 0.97357 0.11183 0.199138
0.0281647 0.102612 -0.104585 0.325347 0.0878574 -0.941504
0.0456929 0.48692 -0.0103152 0.615115 0.761276 -0.205163
-0.00535091 -0.480135 -0.116178 -0.279321 -0.568476 0.773832
0.0061324 -0.372495 -0.102449 -0.8795 -0.474327 0.0386529
0.0580496 0.259435 -0.153889 0.941862 0.143089 -0.304008
0.018676 0.277497 0.163174 -0.388622 0.535248 0.749988
-0.0277608 -0.484529 0.0659073 -0.342807 -0.68736 -0.640328
0.0378823 0.0597756 0.0938547 0.553268 -0.0468574 0.831684
0.0167691 -0.149892 0.0903156 -0.313221 -0.152281 0.937392
-0.0402853 0.277253 -0.0187132 -0.911796 0.40233 0.0822065
0.0802306 -0.26876 -0.114897 0.781946 0.0931782 -0.616342
0.0100415 -0.339544 -0.105012 -0.458979 -0.0713763 -0.885575
-0.107408 0.0503784 -0.276297 -0.910797 -0.271339 -0.311166
0.0477066 -0.0045288 0.0840304 0.510814 -0.0779442 0.85615
0.0199574 -0.189921 0.0232233 -0.501561 -0.201964 -0.841217
-0.0165024 -0.125849 -0.0549747 -0.742688 -0.282511 0.607126
0.0302242 -0.389825 0.0234826 -0.525159 -0.323885 -0.786961
-0.0674395 0.0473274 0.0328188 -0.838444 -0.0873468 0.537943
-0.0640833 0.168026 -0.0290257 -0.97925 0.118824 -0.164168
0.0456624 -0.0824637 -0.0880479 0.866485 0.137337 -0.47994
0.0181726 0.274812 -0.167314 -0.435271 0.69944 -0.566853
-0.0201942 0.200123 -0.198312 -0.93573 0.284492 -0.208505
-0.0339391 0.0683795 -0.0929296 -0.636122 0.11287 -0.763289
-0.0244504 -0.478427 -0.173294 -0.113904 0.293233 -0.949231
0.0801696 -0.450113 -0.0895124 0.321572 -0.146953 0.935412
-0.0498655 0.063986 0.0485469 -0.764216 0.10647 0.636112
0.078461 -0.297806 -0.122525 0.615795 0.299772 -0.728651
-0.046845 0.0532769 -0.0801152 -0.729479 -0.00120042 -0.684002
-0.0188518 0.123054 -0.27288 0.442571 0.207874 -0.872307
0.0879802 -0.357362 0.0811014 0.548773 0.0883771 0.831287
0.0607345 -0.36859 0.029783 -0.0923766 0.334379 -0.9379
-0.045594 0.0975474 0.284849 -0.424258 0.726158 0.541016
0.0382484 -0.343937 0.0610866 -0.836977 -0.27344 0.474026
0.011567 0.370737 0.0503775 -0.277348 0.378276 0.883168
0.0849292 -0.0285213 0.0419261 0.678522 -0.723914 -0.124727
0.0884684 -0.465491 -0.0927465 0.558883 0.0353266 0.828493
0.0662569 -0.198952 0.068043 0.811397 0.163465 0.561171
-0.0139396 0.145937 0.220534 -0.908741 0.363196 -0.205617
0.0945705 -0.444988 -0.097262 0.72374 -0.0547699 0.687896
0.0751659 -0.150624 0.0644428 0.928118 0.248602 0.277117
-0.00238567 0.0719187 0.0914139 -0.455294 0.0899013 0.885791
0.0691858 -0.233368 -0.113127 0.570287 0.237689 -0.786306
-0.00681545 0.223433 0.161954 -0.945055 0.148756 0.291105
-0.00122916 0.186332 -0.151326 -0.110876 -0.744839 0.657967
0.108544 0.044856 -0.0243728 0.992259 0.0483455 -0.114388
0.100489 0.0927268 0.0391802 0.870485 0.0523571 0.489403
0.0890176 0.136418 -0.0655923 0.82984 0.071707 -0.553375
0.0978046 0.236736 0.0164424 0.995057 0.0990906 -0.00646218
-0.0348544 0.142886 0.0683481 -0.714689 -0.0310405 0.698753
-0.042482 0.0214393 0.0528488 -0.802421 -0.220643 0.55447
-0.0226961 0.221114 -0.100618 -0.884389 -0.199304 -0.422059
0.0348007 -0.180524 -0.120145 0.153107 0.00531648 -0.988195
0.0976825 0.271395 -0.00635648 0.976729 0.0904402 0.194477
0.0427029 -0.0902743 -0.094089 0.873385 0.300298 -0.383431
0.0821832 -0.346378 0.0865933 0.465346 0.0787842 0.881615
-0.0682938 0.047724 0.296321 0.320424 0.173831 0.931188
0.0805357 -0.325387 0.0266405 0.521245 -0.0261699 -0.853006
-0.0770197 0.090408 -0.288013 -0.583102 0.229306 -0.779366
-0.0372953 0.0748477 0.241891 -0.252208 -0.242882 -0.936696
0.0633889 0.211473 0.115456 0.911315 -0.406618 -0.0645486
0.0253577 0.26627 -0.180128 0.112052 0.625564 -0.772084
-0.0338171 0.33803 0.0170907 -0.804234 -0.587715 0.0883075
0.0507271 -0.137199 0.0834202 0.502288 -0.0117137 0.864621
0.0948756 0.296048 -0.0447537 0.943837 0.169973 -0.28334
0.0683316 -0.169052 0.0789047 0.796282 -0.0238319 0.604456
0.0434351 -0.414965 0.0441839 -0.538681 -0.436332 -0.72072
0.0436182 -0.422288 0.0865933 -0.308808 0.195247 0.930868
0.0169369 -0.437421 -0.124965 -0.670478 0.74073 0.042182
-0.0189585 0.327778 0.0136125 -0.838296 -0.545214 0.00127771
0.0506966 0.0238191 0.0923903 0.474287 -0.182727 0.861198
-0.0241758 -0.150258 -0.0835934 -0.828808 -0.207397 0.519677
0.00949996 0.365123 -0.0393229 -0.442185 0.387852 -0.80873
-0.0224825 0.245156 -0.15096 -0.746848 0.28008 -0.603136
0.0728471 0.208422 -0.0779795 0.795203 -0.0679505 -0.602524
0.000590266 0.10963 0.199421 -0.262248 -0.414267 -0.871555
-0.0401022 -0.053906 0.0633139 -0.974676 -0.12363 0.186341
0.0571953 -0.474033 -0.09714 -0.122822 -0.533115 0.83708
0.0699181 0.340959 0.0742061 0.777501 0.524682 0.3467
0.00651379 0.108592 0.270205 0.641006 -0.0468717 0.766104
0.0527713 -0.229585 0.082932 0.378232 -0.0651378 0.923416
0.0207202 0.23344 -0.209784 0.250611 0.567284 -0.784464
0.0539612 0.360241 -0.0481099 0.394227 0.850801 -0.347453
0.00966782 0.298488 0.138888 -0.687519 0.441434 0.576588
0.0538391 0.0990729 -0.094211 0.424521 0.181292 -0.887082
0.0612837 0.254798 0.171961 0.732938 0.409464 0.543269
-0.00264501 -0.0694662 -0.114226 -0.260156 -0.032587 -0.965017
-0.00485133 -0.101136 -0.115934 -0.204848 0.137103 -0.969144
0.0616803 0.209154 0.189901 0.971416 0.118787 0.205524
-0.022513 -0.0799618 0.0332917 -0.776515 -0.315921 -0.545178
-0.00501913 0.329975 0.054771 -0.809039 0.381367 0.447231
0.0957909 0.100537 0.047418 0.854104 0.065994 0.515898
0.021727 -0.230805 0.0892172 -0.257817 -0.0328369 0.965636
-0.0300338 0.188163 0.0676769 -0.670164 0.0925063 0.736426
-0.0679276 0.0954117 0.0105615 -0.953649 0.168967 0.249006
0.0445945 -0.0578723 0.0956854 0.474174 0.123683 0.8717
-0.0300338 0.188163 0.0676769 -0.670164 0.0925063 0.736426
-0.0445262 0.0944963 0.0498283 -0.774284 0.0375247 0.631724
-0.000309537 0.279694 0.126257 -0.870196 0.237551 0.431658
0.0429774 -0.343693 0.0272964 -0.116101 -0.316344 -0.941513
0.0771796 -0.477451 0.041438 -0.129675 -0.418289 -0.89901
0.0762642 0.345108 -4.60376e-06 0.830211 0.557414 -0.0063234
-0.0166245 -0.0877724 0.0319798 -0.752883 -0.285052 -0.593223
0.0935331 0.0454357 -0.067484 0.819456 0.0121239 -0.573014
0.09036 0.257727 -0.0565002 0.848013 -0.00848807 -0.529907
0.00480901 0.121345 -0.193553 0.373876 -0.817811 0.437496
0.0893837 -0.273397 0.0661514 0.975507 0.0107762 0.219702
-0.060178 0.0385709 -0.0608327 -0.827684 -0.403661 -0.389868
-0.0313763 0.0996831 -0.0804814 -0.562022 0.252348 -0.787687
0.075654 0.0377166 0.0756096 0.570531 -0.0754331 0.817804
0.048927 -0.195413 -0.0447232 0.324688 -0.278293 0.903953
0.0452352 0.191824 -0.13778 0.809889 -0.54253 0.223026
0.0639381 0.417845 0.017823 0.901726 -0.37377 0.217225
0.0648534 0.266758 0.157926 0.813835 0.334495 0.475169
-0.00717007 0.0871129 -0.101228 -0.399873 0.313513 -0.861284
0.0180657 -0.198342 -0.0580257 -0.520074 -0.324113 0.790237
0.0603074 0.358777 0.0418651 0.663161 0.736467 0.133544
0.101039 0.16046 -0.00824049 0.992961 0.00605588 -0.11829
0.0537781 0.181085 0.151702 0.620734 -0.520508 -0.586311
0.101161 0.199757 -0.000992376 0.998366 0.0543039 -0.0177912
0.0798035 -0.0360879 0.0581576 0.818155 -0.0736321 0.570264
0.0228254 0.190848 -0.227724 0.635576 0.190162 -0.748253
-0.0137337 0.222213 -0.179274 -0.955143 0.278333 -0.101161
-0.0366851 -0.0609234 0.0724975 -0.76016 -0.0636741 0.646609
-0.029332 -0.0295282 0.0811014 -0.681477 -0.0100571 0.73177
0.0124976 -0.209692 -0.0655923 -0.489608 -0.303773 0.817316
0.103235 0.161436 0.00146466 0.994991 0.0167575 -0.0985485
0.00532768 0.0826583 0.258977 0.674893 -0.673378 0.301797
0.0713216 -0.184429 0.065236 0.855999 -0.10676 0.505833
-0.033634 0.0146584 -0.0994588 -0.74618 0.113992 -0.655913
0.0425503 0.198659 0.227002 0.510063 0.293361 0.808563
-0.0236113 0.0409812 -0.105256 -0.598559 0.108354 -0.793717
0.0572258 0.0796684 0.0802471 0.596163 -0.064868 0.800238
0.0772406 -0.0374609 0.0587984 0.818155 -0.0736321 0.570264
0.0322378 0.167782 -0.213445 0.895539 -0.131784 -0.42502
0.0816951 -0.253627 0.0776843 0.791084 0.103127 0.602952
0.0398959 -0.47623 0.10014 0.297489 -0.243018 0.923278
0.0682705 0.194509 0.0693855 0.597007 0.0277238 0.801757
0.038767 -0.332954 -0.124965 -0.661089 -0.110968 -0.742056
0.051856 -0.377621 -0.0678501 -0.0625975 -0.442157 0.894751
0.0160216 -0.16954 -0.122525 0.0890223 0.0224158 -0.995777
0.0740065 0.162534 -0.0693756 0.639266 -0.00548759 -0.768966
0.0496592 -0.189189 0.012293 0.10915 -0.181702 -0.977277
0.0114832 0.13837 -0.243956 0.783519 -0.00253576 -0.621363
-0.019462 -0.0648897 -0.0434418 -0.737186 -0.245758 0.629413
0.0377907 0.213792 -0.205513 0.815156 0.157153 -0.557515
-0.0213841 -0.145132 -0.0775524 -0.842554 -0.216787 0.493057
0.000537572 -0.48282 -0.122342 -0.155208 -0.910559 0.383136
0.0799255 -0.174666 0.059317 0.96034 -0.07913 0.267366
0.060704 -0.0944847 -0.0399941 0.828633 -0.0347497 0.558713
0.00207928 0.128241 -0.255062 0.704287 -0.222963 -0.673993
-0.0255946 0.262608 -0.122403 -0.934525 0.350684 -0.0606895
0.025251 0.403444 -0.0285375 0.184626 -0.274843 -0.943597
-0.0136192 -0.217869 -0.12222 -0.612629 -0.178943 -0.769848
0.0438318 -0.0985731 0.0920851 0.333497 -0.0991153 0.937527
0.0198354 0.0999882 0.248969 0.757088 -0.513406 0.40402
0.0263035 0.0355199 0.101604 0.322861 -0.062364 0.94439
-0.0188518 -0.166001 0.0529709 -0.975641 0.0938614 -0.19828
0.0595751 -0.209326 0.0204469 0.477438 -0.0856425 -0.874481
-0.0294236 0.153381 -0.0773693 -0.499806 0.0379033 -0.865307
0.000575895 -0.466467 0.103374 -0.117627 0.537299 0.835149
-0.0846473 0.087662 -0.258723 -0.920015 0.350225 0.175824
-0.0587745 0.109813 -0.286548 -0.0676513 0.427745 -0.901364
0.0673553 0.182671 -0.0820069 0.702682 -0.140567 -0.69748
-0.00864603 -0.230317 -0.109283 -0.970369 -0.118861 -0.210372
-0.000152242 -0.460853 -0.163408 0.142711 0.694747 -0.704954
0.0272951 0.179742 0.094526 0.0629281 -0.238657 0.969063
-0.0263268 0.0880892 -0.22748 0.192588 -0.766603 0.612559
-0.00262027 0.192313 0.136081 -0.0246003 -0.709942 -0.703831
0.0513678 0.234417 -0.177321 0.913943 0.0548902 -0.402113
-0.074945 0.0406151 -0.0295596 -0.884081 -0.361676 -0.295959
0.0337023 0.134221 0.192098 0.724286 -0.497558 -0.477332
0.0610701 -0.44157 -0.143272 0.144184 0.0771697 -0.986537
-0.0575236 -0.481112 0.0795149 -0.958716 -0.158628 -0.236012
0.0180657 -0.165757 -0.0443266 -0.433013 -0.288079 0.854114
0.0976825 0.275545 -0.0431062 0.962547 0.0459278 -0.267196
0.0479506 -0.00829302 -0.0986045 0.600218 -0.114788 -0.791557
-0.0783622 0.0409202 -0.257502 0.69967 -0.666805 0.25658
0.0199269 0.402956 0.0449772 0.109848 -0.146274 0.983126
0.0516729 -0.160997 -0.0409399 0.416873 -0.193858 0.888052
0.0886514 -0.258752 0.0662734 0.919435 0.0716406 0.386661
0.0574394 -0.108092 -0.0354481 0.688829 -0.0854126 0.719875
-0.0933733 0.0364352 -0.254085 -0.475023 -0.476205 0.739988
0.0398654 -0.413013 -0.14974 -0.614262 -0.098061 -0.782986
0.0495372 -0.0812432 0.00584003 0.463837 -0.155874 -0.8721
0.00601802 0.236369 -0.208564 -0.385626 0.646021 -0.658748
-0.0136879 -0.468175 -0.175002 -0.100836 0.488167 -0.866905
-0.072016 0.0383268 -0.269707 0.798738 -0.599456 -0.0516652
0.0391942 0.22563 0.211869 0.219252 0.49459 0.841017
