ply
format ascii 1.0
element vertex 813
property float x
property float y
property float z
property float nx
property float ny
property float nz
element face 0
property list uchar int vertex_indices
end_header
0.10968 0.0366906 -0.0253288 0.976836 -0.119231 -0.177694
0.0700434 -0.343976 -0.0742956 0.458803 0.0623868 0.886345
0.0290954 0.0993475 -0.103017 0.226872 0.0889588 -0.969853
-0.00714953 0.0758092 0.243653 0.423206 -0.874583 -0.236646
-0.0513676 0.412418 0.00249426 -0.968798 -0.000430291 -0.247852
-0.00717237 0.402905 0.046597 -0.357973 -0.0713555 0.931001
-0.0666125 0.0835537 0.259996 -0.780445 0.355481 -0.514334
-0.0187738 -0.222626 0.0596162 -0.993185 -0.114901 0.0195393
-0.0241857 -0.0933489 -0.109847 -0.411585 0.0913991 -0.906777
-0.0102366 -0.103776 0.0292787 -0.744659 -0.15979 -0.648036
0.0849834 -0.223236 0.0617505 0.896322 0.279804 0.343971
-0.000300744 0.149107 0.262191 0.126694 0.431374 0.893233
0.0335165 0.398027 0.0383952 0.476913 -0.261239 0.83923
-0.0244297 -0.0924952 -0.109664 -0.482548 0.0317027 -0.875295
-0.0639904 0.100262 -0.245283 -0.546043 0.088141 0.833108
-0.0600267 0.0368736 -0.0209687 -0.630696 -0.771199 -0.0864574
-4.91505e-05 0.305094 -0.132226 -0.421912 0.478234 -0.770248
0.0255891 0.402905 -0.0258776 0.104098 -0.251692 -0.962193
0.0882764 0.0131524 0.045103 0.741793 -0.403907 0.535353
-0.0603316 0.0772117 0.28512 -0.75249 0.256152 0.606749
-0.0353604 0.085444 -0.232965 -0.0458906 -0.644374 0.763333
-0.0128207 0.0552285 0.0885816 -0.550601 0.106962 0.827888
0.0306352 -0.328121 -0.112652 -0.607821 -0.135597 -0.782411
0.0720557 -0.21787 -0.0775885 0.907595 0.287806 0.305679
0.0465051 -0.394224 0.0898622 -0.0803339 -0.185007 0.979448
0.00849563 -0.309584 0.037389 -0.969346 -0.233449 -0.0766188
0.068031 -0.429104 -0.143935 0.408974 0.0187136 -0.912354
0.00474155 0.378269 0.0486703 -0.469467 0.0391601 0.882081
0.00759996 -0.334463 -0.104664 -0.606162 0.309395 -0.732695
0.03094 0.409735 -0.0278289 0.237812 -0.415627 -0.877895
-0.0628927 0.170084 -0.0303901 -0.983392 0.0942101 -0.155128
-0.0298874 0.0823341 0.0677875 -0.745168 -0.0638847 0.663809
0.0371753 -0.482279 0.0620554 -0.114321 -0.929542 -0.350545
-0.0563374 0.0755653 -0.236624 -0.187547 -0.278619 0.941912
0.021854 -0.364222 -0.110945 -0.385124 0.0989093 -0.917549
0.0672383 -0.493011 0.078337 -0.0116475 -0.939851 0.341387
-0.0121042 -0.245433 -0.118811 -0.474707 -0.479475 -0.738076
-0.0182555 0.358512 0.0295531 -0.7844 0.375922 0.493354
0.104924 -0.484718 0.058793 0.989935 -0.141518 -0.00101693
-0.0427084 0.145082 -0.226135 -0.826357 0.29176 0.481674
-0.013278 -0.0996909 0.0314435 -0.738491 -0.215965 -0.638741
0.0399194 -0.426665 -0.141617 -0.367889 0.335983 -0.867049
0.0562619 0.207892 0.0999849 0.872889 -0.384012 0.300997
-0.015984 0.340218 -0.0156177 -0.91724 0.0578375 -0.394114
-0.0250242 -0.0685911 -0.0489585 -0.707061 -0.247046 0.662596
0.00883482 -0.360319 0.0331814 -0.869714 0.0491392 -0.491104
0.013294 0.132277 -0.10131 -0.143735 0.207309 -0.967659
0.0458039 0.164962 0.160599 0.180522 -0.778338 -0.601333
-0.0249785 -0.170671 0.0594942 -0.988941 -0.0228692 -0.146538
0.0542496 -0.325926 0.0887646 -0.286649 -0.133486 0.948691
0.074312 0.28436 0.12334 0.976841 0.159042 0.143135
-0.0108693 0.00247331 -0.110518 -0.180926 0.0995791 -0.978443
-0.0265335 0.0042341 0.0766296 -0.745465 -0.0122574 0.666432
0.0552558 -0.0464859 -0.0242006 0.751632 -0.227156 0.619233
0.0584267 0.19594 0.0879109 0.710833 -0.160078 0.684902
-0.0359701 -0.0191822 -0.00499198 -0.805304 -0.553181 -0.213253
-0.00101149 0.0780655 0.257069 0.688001 -0.700382 0.190053
0.0904107 -0.361051 0.0503473 0.996062 -0.0859259 0.0218284
0.0940085 0.0789192 0.0549207 0.817642 0.0483768 0.573691
-0.061978 0.0897126 0.0267023 -0.848823 0.1228 0.514217
0.0290344 -0.379345 -0.0866745 -0.586117 -0.60563 0.538219
0.0451026 0.0831268 0.0948016 0.502341 -0.0792859 0.861027
-0.00312103 -0.481547 0.114559 0.0807477 0.736787 0.671286
0.00940652 -0.472034 0.0477556 0.261713 -0.398874 -0.878866
0.0170823 -0.278606 0.0622078 -0.872104 -0.31317 0.375978
0.0222656 0.085627 -0.106249 0.0929703 0.12254 -0.988099
0.0185154 -0.476668 0.109803 0.325175 -0.0150755 0.945534
-0.0385313 -0.463009 -0.167107 -0.273255 -0.936782 0.218566
0.00692537 0.142521 0.0937039 -0.169542 -0.0714772 0.982927
0.0480296 0.246431 -0.176132 0.745738 0.32845 -0.579651
0.0451941 -0.202015 0.0943137 0.22357 -0.0609205 0.972782
-0.0378605 0.11008 -0.274432 0.561773 0.265404 -0.783563
0.00559909 0.0443436 0.0999239 -0.333735 0.155122 0.929816
0.00686821 0.271433 -0.152716 -0.537976 0.579851 -0.611845
-0.0480747 0.0245709 -0.0210297 -0.957761 -0.275801 -0.0814129
0.0568412 -0.394711 0.0821787 0.276218 -0.0318814 0.960566
0.0696775 -0.032613 -0.0514891 0.810138 -0.560119 0.17304
0.0805929 -0.483986 -0.134178 0.182742 -0.824787 -0.5351
0.0196435 0.410955 0.0508656 0.0964057 -0.366298 0.92549
0.110229 0.0248606 0.0131114 0.935182 -0.351595 0.0426108
-0.0436841 -0.0413636 -0.0900284 -0.939104 -0.0340895 -0.341939
-0.057618 0.085627 0.0368097 -0.83083 0.123401 0.542673
0.0569632 0.240211 0.188162 0.685037 0.419767 0.595416
-0.018972 -0.0638347 0.0855936 -0.497254 -0.148975 0.854719
0.0424805 -0.20421 -0.116372 0.18798 -0.0202987 -0.981963
0.0907155 -0.47179 -0.0923456 0.7022 -0.106427 0.703981
0.016808 -0.380808 0.0465665 -0.931473 -0.342654 0.122251
0.0104432 0.408028 -0.0297498 -0.0422795 -0.324885 -0.944808
0.0114113 -0.0484373 -0.11997 0.180419 0.0526826 -0.982178
0.0190032 0.346804 0.0730318 -0.669173 0.591392 0.449959
0.0530605 -0.157866 -0.0418848 0.559359 -0.202993 0.803686
0.0509567 -0.0457236 -0.0805765 0.769501 -0.215267 -0.601272
0.00936839 0.288507 0.144744 -0.733642 0.400323 0.5491
0.10157 0.194964 0.0413527 0.97826 0.0373513 0.203989
0.0564753 0.443396 0.0459567 0.634921 -0.00464891 0.772563
-0.0211368 0.346072 -0.0158921 -0.826633 0.189366 -0.529924
0.0458039 -0.207503 -0.0463058 0.122272 -0.361844 0.924185
0.0730923 -0.216162 -0.108139 0.669045 0.171376 -0.723194
-0.0495076 0.240943 -0.00544932 -0.977366 0.195068 0.0818744
-0.0525871 0.0653817 -0.257113 0.36005 -0.864198 0.351462
0.0350714 -0.30251 -0.128934 -0.477453 -0.10017 -0.872929
0.0491577 -0.0938368 0.00825209 0.517668 0.0447894 -0.854408
0.0867519 0.289483 0.0666289 0.900685 0.0188802 0.434062
0.0926059 0.295825 0.0210464 0.991693 0.11975 -0.0469549
0.0297662 0.33973 0.116266 -0.0918536 0.848323 0.521451
0.0584267 -0.444227 0.0962651 -0.0425623 0.165436 0.985302
-0.00746963 -0.484962 0.0670557 -0.000739376 -0.98063 -0.19587
0.0383339 0.489985 -0.00980176 0.453066 0.835566 -0.310741
-0.0239114 0.0701381 -0.0981387 -0.480201 0.258098 -0.838327
0.0356507 -0.255433 0.0193847 -0.061067 0.0422142 -0.997241
-0.0701494 0.088554 0.00971561 -0.947845 0.202047 0.246509
-0.0271585 0.182768 -0.23199 -0.716451 0.644818 -0.266285
0.0144221 -0.287631 -0.0887478 -0.380074 0.144144 0.913655
-0.065149 0.166181 -0.0143829 -0.995474 0.0901317 0.0301163
0.00339618 0.17606 0.208041 -0.962453 0.26314 0.0666428
0.0777269 -0.417152 0.0322057 0.343941 -0.102377 -0.933393
0.0750437 0.272164 0.128706 0.976548 0.0551591 0.208113
0.0511396 -0.250555 -0.123201 0.113968 0.0714827 -0.990909
-0.0926509 0.0386725 -0.249552 -0.0748753 -0.756489 0.649706
0.0321749 -0.263971 -0.12625 -0.401095 0.234767 -0.885442
0.0406511 0.421687 0.0515059 0.334369 -0.360202 0.870891
0.0535178 0.389977 0.0151314 0.998077 0.0613417 -0.00895232
0.0158551 -0.479108 -0.113323 -0.0271797 -0.685236 0.727814
0.0264123 0.178743 0.242922 0.20409 0.45817 0.865117
0.0171586 0.119532 -0.2065 0.741179 -0.638932 0.205961
0.092362 -0.315682 0.0562318 0.982667 0.106634 0.151637
0.0842517 -0.241408 0.069251 0.902192 0.113297 0.416189
-0.041001 0.237528 0.0630921 -0.868761 0.123278 0.479643
0.0757145 -0.412762 -0.0857598 0.40597 -0.0585565 0.912008
-0.0444463 0.118861 0.0599211 -0.830409 -0.0844624 0.550715
0.0412609 -0.0590173 -0.103139 0.856363 -0.0449432 -0.514415
0.0955329 -0.37593 0.0668118 0.94367 -0.0292776 0.329589
0.0886422 0.242284 0.0606529 0.760676 -0.0847034 0.643582
-0.00962681 0.275579 0.0866913 -0.938118 0.250556 0.239074
-0.0080032 0.308021 -0.0919798 -0.814851 0.519081 -0.258016
0.00220613 -0.281777 -0.0990534 -0.161392 0.286352 0.944434
0.00798109 -0.143108 -0.120701 0.00717556 0.0469281 -0.998873
-0.0115934 -0.260556 -0.113811 -0.141618 0.312724 0.939227
0.0571461 0.174841 0.0866913 0.705735 0.0898572 0.702754
0.0180275 -0.00480996 -0.108444 0.278815 0.231424 -0.932043
0.00430707 0.461446 -0.0327988 -0.272531 0.131415 -0.95313
0.0500724 0.0972132 -0.0948458 0.451045 0.115677 -0.884973
0.0478772 -0.0947515 -0.0840524 0.834637 0.204058 -0.511606
0.0781537 0.301435 0.090594 0.934247 0.126855 0.333302
-0.0204202 -0.470083 0.107424 0.292448 0.290466 0.9111
-0.00358602 -0.484718 0.0576344 -0.105667 -0.825469 -0.554468
0.0456515 0.153863 0.207187 0.935136 -0.332519 0.122279
-0.0176761 0.140448 -0.184425 -0.655959 -0.2972 0.693823
0.0707142 -0.41203 0.0755929 0.313746 0.132604 0.940202
-0.00850632 0.206672 0.165599 -0.974753 0.0539486 0.216671
-0.0370068 -0.0813969 -0.0649657 -0.931898 -0.130053 0.338603
0.0339433 -0.211772 -0.0509403 -0.282403 -0.382911 0.879561
0.0323273 -0.348611 0.0549207 -0.948466 0.140305 0.284126
0.0907155 -0.490084 0.0422674 0.20263 -0.537276 -0.818704
0.0617501 -0.267629 0.0877279 0.0703621 0.0321151 0.997004
-0.0186519 0.24448 0.0869962 -0.902344 0.102912 0.418551
-0.022082 0.34095 0.0391575 -0.700108 -0.484582 0.524432
0.0883373 -0.486425 -0.0954556 0.226897 -0.783618 0.578326
0.0272355 -0.410566 0.0700438 -0.940323 0.00569731 0.340237
0.0907155 -0.397395 -0.108261 0.996366 -3.80632e-06 -0.0851715
-0.0168834 0.319973 -0.036793 -0.849603 0.505792 -0.149498
0.0322359 -0.330317 -0.114481 -0.638447 -0.10105 -0.763004
-0.048532 0.03105 -0.0465802 -0.878593 -0.472421 0.0699412
0.0996186 -0.457887 0.0545854 0.896691 -0.0357494 -0.441212
-1.29931e-05 0.33534 -0.0524953 -0.706043 0.641982 -0.298935
0.0236377 -0.272508 0.0857766 -0.258525 -0.343881 0.902724
0.0595853 -0.309096 -0.0686245 0.328321 -0.217306 0.91923
0.0406206 -0.324463 -0.129787 -0.52703 -0.0783415 -0.846228
0.0524811 0.215941 -0.123079 0.896038 -0.397824 0.197109
0.0423585 -0.347391 -0.127348 -0.672132 -0.118206 -0.730935
-0.0414583 0.404613 -0.00785041 -0.694639 -0.252415 -0.673619
0.0200399 -0.328121 0.0462616 -0.727735 -0.573887 0.375573
0.0498285 -0.384711 -0.0703929 -0.140448 -0.451225 0.881289
0.0631221 0.321924 0.115657 0.69947 0.547256 0.459623
0.0500115 -0.215553 -0.113933 0.195534 0.171287 -0.965623
0.0561705 -0.167135 0.0157336 0.419812 -0.0436557 -0.906561
-0.0508187 0.237284 0.0197354 -0.974966 0.213622 0.0617028
0.100594 0.178987 -0.0404518 0.875482 -0.108643 -0.47088
0.071019 0.0175887 -0.0769787 0.626648 -0.236469 -0.74256
0.0267629 -0.0698717 0.0998019 -0.000727005 -0.121 0.992652
0.0058163 -0.484962 0.0660801 0.0857763 -0.919142 -0.384474
0.021854 0.184719 0.100717 0.178362 -0.458383 0.870673
-0.0115172 -0.158963 0.0794956 -0.471783 -0.10972 0.874861
0.0615977 0.0831268 0.0794956 0.589252 -0.0196732 0.80771
-0.0385008 0.46169 -0.00433644 -0.885948 0.206459 -0.415295
0.0108777 0.270945 0.161331 -0.628022 0.523073 0.57618
0.0505298 -0.113289 -0.0876502 0.895754 0.189514 -0.40213
0.00167112 0.106848 -0.244186 0.727365 -0.58804 -0.353765
0.0538227 -0.134937 0.084557 0.440071 -0.00915127 0.897916
0.0678481 0.126179 -0.0770397 0.519605 0.145391 -0.841946
0.0627868 -0.104691 -0.0560626 0.991834 0.114141 -0.0568899
0.0422366 0.297532 0.15633 0.140782 0.623812 0.76879
0.0487004 0.202525 -0.138324 0.877556 -0.396216 0.270016
-0.04716 0.259481 -0.0100609 -0.951535 0.287283 0.109771
-0.0185604 -0.205674 0.0727269 -0.851329 0.088108 0.51718
0.0916913 -0.40398 -0.119726 0.968651 -0.0250716 -0.247155
-0.0210148 0.108433 -0.0848451 -0.516666 0.146974 -0.843478
-0.00882649 -0.0716401 0.00992522 -0.510756 -0.338663 -0.790212
0.0815076 0.002641 0.0551647 0.775861 -0.312767 0.547921
0.0724216 0.258261 -0.076064 0.859064 -0.2116 -0.466084
0.0996186 -0.465448 0.0701047 0.909131 0.0682904 0.410875
-0.0315796 -0.136767 -0.104054 -0.9745 -0.093232 -0.2041
0.0309705 0.495107 0.0178907 0.281888 0.939682 0.193745
0.0144907 0.15301 -0.236746 0.789937 0.0272967 -0.612581
0.0804709 -0.278362 0.0806543 0.622874 0.0258551 0.781895
0.0152606 0.220819 -0.216867 0.258961 0.492003 -0.831187
0.080349 -0.435202 0.0816909 0.539542 0.421116 0.729079
-0.0245974 0.0931275 -0.271261 0.614047 -0.190823 -0.765854
0.00281306 -0.267142 0.0601955 -0.773357 -0.513912 0.371232
-0.0516724 0.0379102 -0.0722223 -0.848696 -0.313874 -0.425673
0.0439135 -0.466912 0.0974237 0.286587 0.0684245 0.955608
0.00202364 0.113251 0.195113 -0.326396 -0.595537 -0.734031
-0.0314577 0.200086 0.0702877 -0.735849 -0.0689967 0.673622
-0.0215179 0.386563 -0.0110214 -0.585371 -0.354704 -0.729058
0.0908375 -0.497645 0.0694949 0.485343 -0.761396 0.429788
-0.0191702 -0.0542304 0.0117089 -0.674821 -0.457962 -0.578694
-0.0520993 0.0898346 0.244385 -0.795786 0.280726 -0.53658
0.0754096 -0.0359669 0.0674826 0.904637 -0.107083 0.41251
0.00703975 0.48535 0.0401026 -0.0817243 0.755612 0.649901
-0.0506663 0.10325 -0.056276 -0.707626 0.109782 -0.698007
-0.0239266 0.344852 -0.0135139 -0.893473 0.0589198 -0.445235
-0.0395374 -0.0420648 -0.0560321 -0.88533 -0.323376 0.334093
0.0106794 -0.441788 -0.125641 -0.675348 0.69946 0.233794
-0.0706372 0.0773947 -0.0324939 -0.968133 0.0582016 -0.24358
0.0988869 0.227649 -0.04283 0.868028 -0.00271539 -0.496508
0.0780927 -0.361294 0.0899232 0.505343 0.0404334 0.861971
0.0425109 0.274604 -0.163326 0.472209 0.501899 -0.724649
0.0902277 0.32168 -0.00365042 0.908584 0.412311 0.0668911
0.108522 0.037087 -0.0316402 0.966489 -0.181034 -0.182002
-0.0269603 -0.481547 -0.143813 -0.358323 -0.915893 -0.180956
0.0667505 -0.314462 0.022952 0.280985 -0.0569055 -0.958023
0.0627868 -0.104691 -0.0560626 0.991834 0.114141 -0.0568899
0.0532434 -0.151036 -0.0407262 0.562665 -0.23221 0.793402
0.0185154 0.112824 0.194992 0.263755 -0.540355 -0.799031
0.0456515 -0.440324 -0.0888088 -0.397524 -0.11333 0.910566
0.0744949 -0.32495 -0.130641 0.495349 0.0830731 -0.864713
0.030132 -0.374222 0.0732757 -0.753319 0.205775 0.624634
0.0474503 0.226064 0.207187 0.580565 0.436836 0.687109
-0.0416413 0.085444 -0.28492 0.512072 -0.212775 -0.832171
0.0551643 0.458763 -0.0246885 0.607986 0.252904 -0.752591
0.028013 0.203745 -0.214793 0.666327 0.309828 -0.678245
0.000422012 0.226064 0.183405 -0.903312 0.222867 0.366548
-0.020466 0.118312 0.0841301 -0.583438 -0.0230728 0.81183
-0.030421 0.412174 -0.019993 -0.539396 -0.192761 -0.819692
0.103277 -0.481059 0.0623298 0.992131 -0.111273 0.0573898
-0.0426779 0.109897 0.257801 -0.859554 0.507967 -0.0560041
-0.0199629 -0.485206 0.0741904 -0.0194597 -0.999616 -0.0197295
-0.0995416 0.064406 -0.280042 -0.859881 0.465446 -0.209679
0.0554082 0.197403 0.213042 0.905222 0.129355 0.404771
-0.0079194 -0.171525 -0.0671 -0.688679 -0.234972 0.685937
0.0317023 0.14557 0.0978506 -0.0904556 0.0293933 0.995467
0.0608354 0.357048 0.0492801 0.661275 0.71694 0.220708
-0.0483186 -0.0328264 -0.0657584 -0.981163 -0.148468 0.123596
0.0447672 -0.0304177 0.0867522 0.52385 0.0738494 0.848603
0.0533349 -0.294217 0.0821178 -0.111255 -0.0122487 0.993716
-0.0367933 0.00708873 -0.0966752 -0.758388 0.10577 -0.643164
0.0495846 -0.14506 -0.11375 0.716439 0.109661 -0.688977
-0.0838698 0.0350137 -0.268577 0.303846 -0.92932 0.209862
0.0968136 -0.498133 0.0610187 0.94983 -0.306462 -0.0624791
0.0739461 0.269969 0.114498 0.994105 -0.0765678 0.0767622
-0.0587766 0.109653 -0.284188 -0.0963089 0.382556 -0.918899
0.0716898 0.276311 -0.0941141 0.964881 -0.202967 -0.166763
-0.0678931 0.0219945 0.264387 0.521285 -0.849308 -0.083296
-0.027936 0.474618 0.0265041 -0.737181 0.490131 0.46512
-0.0654539 0.0952618 0.271216 -0.698804 0.714643 -0.0309585
0.0361081 -0.483254 -0.122104 -0.123486 -0.952064 0.279865
-0.0136972 0.0392213 -0.110518 -0.334648 0.0359136 -0.941659
0.024964 -0.00658981 -0.105395 0.422417 0.111888 -0.899469
0.0509567 -0.117558 -0.0313658 0.748003 -0.0875089 0.657901
0.0595244 0.46852 0.0255589 0.794569 0.487964 0.361319
0.02347 0.313387 -0.134422 -0.316373 0.478892 -0.818884
-0.0745399 0.0895907 -0.239673 -0.550383 0.178291 0.815654
0.00508836 0.227161 0.193772 -0.834206 0.321215 0.448243
0.071141 0.256554 -0.0772836 0.859064 -0.2116 -0.466084
0.100899 0.173743 0.0424504 0.92618 -0.0400717 0.374947
0.0739461 0.286312 0.123279 0.969778 0.185465 0.158533
0.00608692 -0.357636 -0.0872233 -0.905335 -0.380493 0.188663
-0.0581363 0.20594 -0.0114711 -0.988538 0.143797 0.045998
-0.0224326 -0.482279 -0.126007 -0.0854931 -0.905876 0.414825
0.0727875 -0.209455 0.0381818 0.939674 -0.0146527 -0.341757
0.0630612 -0.284704 0.0216562 0.31297 0.0415635 -0.948853
-0.0300551 -0.146645 -0.0886259 -0.959131 -0.208117 0.191716
0.00198649 0.186549 -0.148935 -0.186141 -0.623313 0.759495
0.0255128 -0.434714 0.0774223 -0.612554 0.442545 0.654929
0.0607745 0.15118 -0.0827718 0.633293 0.00597894 -0.773889
0.10279 0.199842 -0.0121876 0.999671 -0.0050602 0.0251476
-0.0335004 0.100567 -0.219184 -0.247705 -0.7633 0.596671
-0.0340188 0.0758092 -0.0903943 -0.604121 0.325752 -0.727271
-0.0460928 0.067333 -0.0800887 -0.731237 0.173699 -0.659637
0.0303759 0.191671 -0.215891 0.773902 0.096695 -0.625881
-0.0141241 0.100079 -0.235404 0.409049 -0.881015 0.237679
0.00121984 0.388026 -0.0188344 -0.324838 -0.0984647 -0.94063
-0.0396594 0.100262 0.0576648 -0.829719 -0.169089 0.531954
0.006651 -0.482279 -0.146496 -0.169731 -0.957851 -0.23176
-0.0400253 -0.0167887 0.0672997 -0.871588 0.109309 0.477897
0.0104051 -0.264458 0.0218697 -0.460298 0.0397415 -0.886875
0.0627563 -0.341781 0.0241716 0.247034 -0.141291 -0.958651
0.0373887 -0.0452968 -0.000631915 0.739419 -0.375924 -0.558516
0.104802 0.0809925 -0.0114787 0.995603 0.0855645 -0.0381348
-0.0388362 0.105689 0.063336 -0.819972 -0.193083 0.538856
0.00952851 -0.192258 -0.0596604 -0.592946 -0.317525 0.739995
0.00695969 0.0830658 0.237312 0.593941 -0.804504 0.00269854
0.0685189 -0.256653 -0.0682586 0.637381 -0.0216543 0.770244
0.012364 -0.124876 0.0109276 -0.490939 -0.0785185 -0.867648
0.0589755 -0.0606332 0.0800445 0.884286 -0.160751 0.438403
-0.0500869 0.085566 0.254386 -0.754853 0.218767 -0.618335
-0.0388362 0.453397 0.0248119 -0.894563 0.296662 0.334288
0.0223419 -0.0848727 -0.116067 0.215428 -0.0414584 -0.975639
0.0550728 -0.401053 0.0779102 0.219069 -0.0397064 0.974901
-0.0310003 0.23143 -0.0894796 -0.85715 -0.157148 -0.490508
-0.0146119 0.0909932 -0.0933213 -0.477483 0.310612 -0.821906
0.0274794 -0.131034 0.0960822 0.276709 -0.0115675 0.960884
-0.0885653 0.043063 0.26585 -0.802947 -0.0181237 -0.595775
-0.0419461 -0.0363633 0.0671777 -0.945026 -0.0245787 0.326071
0.0857152 -0.27763 -0.102285 0.969512 0.113049 -0.21741
0.0993137 0.209355 0.0485484 0.896321 0.0441562 0.441201
0.0360471 0.263627 -0.17662 0.425884 0.570807 -0.701999
0.0646772 -0.280557 -0.0660633 0.373909 -0.0419954 0.926514
0.0118762 0.382904 -0.0261672 -0.151314 0.0104461 -0.988431
0.0379985 -0.403493 -0.101493 -0.853519 -0.0485088 0.518798
0.086508 -0.297388 -0.101493 0.992368 0.0824537 -0.0916898
0.0306199 0.289239 -0.157838 -0.00741197 0.721127 -0.692764
0.0113426 0.107519 0.265362 0.730471 -0.0343634 0.682078
0.0461088 -0.224212 0.0184167 0.0966406 -0.112331 -0.98896
0.0866909 -0.455935 0.0841911 0.609885 -0.0956424 0.786698
0.0472674 0.483887 0.0260925 0.611973 0.715307 0.33738
-0.0213349 0.469983 0.0378159 -0.610688 0.417062 0.673141
-0.0747838 0.0743457 -0.010564 -0.992122 0.106061 -0.0666742
0.00269875 0.0231683 -0.110762 -0.189848 -0.0323502 -0.98128
0.0596768 -0.19177 0.0191561 0.56889 -0.0575889 -0.820395
0.00747423 -0.449106 0.0643421 -0.595874 0.620212 -0.510169
0.0317938 -0.174086 -0.0383175 -0.0748861 -0.238268 0.968308
0.0610184 0.212038 0.0914477 0.917945 -0.256917 0.302277
-0.00888745 0.103128 -0.207963 0.0748908 -0.896902 0.435843
0.0342177 -0.330073 0.0610187 -0.657737 -0.404604 0.635356
0.101448 0.073431 -0.0483182 0.953039 0.0863757 -0.29027
-0.049965 0.237284 -0.0598434 -0.933112 0.00638546 -0.359528
-0.0253596 0.432176 -0.0240025 -0.486848 0.0706876 -0.870622
0.0453161 0.175694 0.148281 0.228688 -0.644091 -0.729965
0.0415658 -0.418616 -0.0933823 -0.682538 0.0835882 0.726054
-0.0489283 0.230576 0.0448896 -0.957457 0.107755 0.267704
0.0767511 -0.20482 0.0571465 0.972878 0.152161 0.174229
0.098582 0.282409 -0.0084907 0.973691 0.109018 0.200103
-0.00804894 0.356073 -0.0317012 -0.734384 0.256454 -0.62842
0.0600122 -0.0176272 0.0748002 0.636165 0.0043321 0.771541
-0.0162584 -0.0481019 0.0910818 -0.494423 -0.120296 0.860857
0.0266867 -0.39276 -0.109115 -0.740577 -0.650871 0.167069
-0.0366104 0.274848 -0.0723443 -0.888873 0.278757 -0.363591
0.0370838 -0.316901 0.0774833 -0.688403 -0.255309 0.67891
-0.00643682 0.19972 -0.231258 -0.293702 0.76917 -0.567553
-0.0242468 0.0567835 0.272192 0.492737 -0.828869 0.264927
0.000159001 -0.322267 -0.0834426 -0.671117 -0.144971 0.727039
0.0280283 -0.0351741 0.093643 0.223863 0.163131 0.960871
-0.0311832 -0.00899852 0.0768735 -0.757777 0.0813489 0.647423
0.0481821 -0.152255 0.0129742 0.440853 -0.0633856 -0.895339
0.0663846 -0.0754209 0.0573599 0.952663 -0.0750593 0.294617
-0.0308783 -0.0796894 -0.0564895 -0.795623 -0.138655 0.58971
-0.0764303 0.0817243 -0.2837 -0.684688 -0.0264176 -0.728357
-0.0340188 0.050777 0.0705316 -0.702504 0.115933 0.702173
-0.0768571 0.0489171 -0.0149012 -0.977185 -0.211998 -0.0129172
0.053091 0.369976 0.0349194 0.754644 0.570438 0.32421
0.0467796 -0.297388 0.0170599 0.133028 -0.0480225 -0.989948
-0.0558801 0.141789 -0.0568249 -0.787189 0.0407081 -0.615367
-0.0284544 0.226917 -0.0916749 -0.858946 -0.255276 -0.443899
-0.0410925 0.0742848 0.0600735 -0.795398 0.0627794 0.602827
0.103887 0.225942 -0.030573 0.99895 0.0458046 -0.000362626
0.049859 -0.348367 -0.0673439 0.156314 -0.034495 0.987105
0.0844956 -0.300071 -0.09137 0.895038 -0.0735231 0.439887
0.0274337 0.141789 -0.171498 0.632015 -0.614552 0.472105
0.0067539 0.145326 0.175234 -0.227675 -0.609669 -0.759255
0.0430293 0.187646 -0.182474 0.966361 -0.190963 -0.172279
0.0934596 0.301435 0.032968 0.98607 0.156429 -0.0565316
0.0872397 -0.326414 0.0334101 0.720784 -0.028679 -0.692567
-0.00501519 0.233869 0.158769 -0.935457 0.242486 0.257139
0.000390579 0.0847123 0.093399 -0.411432 0.0261059 0.911067
-0.0474648 0.0517831 0.262679 0.432496 -0.884075 -0.177084
0.0769341 -0.474229 -0.0928945 0.0157729 -0.448973 0.893406
-0.0502089 0.0652597 -0.263943 0.363721 -0.911856 0.190329
0.0869958 -0.304217 -0.10881 0.941876 0.111374 -0.316962
0.0408341 -0.440324 0.090655 -0.284539 0.384784 0.878054
-0.0442024 -0.485449 0.100717 -0.439356 -0.878028 0.189822
-0.0141012 0.215453 0.118889 -0.804782 -0.589434 -0.0699576
0.0870567 -0.246043 0.0585491 0.987432 0.0709631 0.141218
0.103765 0.0940422 0.00233704 0.999682 0.0250022 0.00315895
-0.0108693 0.269969 0.122243 -0.917839 0.249924 0.308399
-0.024201 0.184841 -0.221501 -0.782515 0.622609 -0.00531008
0.0456819 0.142521 0.1009 0.151658 -0.0812896 0.985085
0.0164268 0.465593 0.0563843 -0.102753 0.284639 0.953112
0.0220979 -0.282265 -0.0864916 -0.685994 0.164744 0.708711
0.0243084 -0.396419 0.0321295 -0.634133 -0.622042 -0.45928
0.0832151 -0.350806 -0.126128 0.704836 0.0284426 -0.7088
0.0102907 -0.0500227 0.10279 -0.0913091 0.051473 0.994491
0.0251774 0.360463 -0.0423117 -0.156128 0.684017 -0.712562
-0.0340188 0.289483 0.0152991 -0.893599 0.448765 -0.00958668
0.0416877 0.183012 -0.168083 0.916297 -0.390492 0.0889726
0.0290802 0.0524235 0.102546 0.129617 -0.0682519 0.989212
-0.0463977 -0.00597241 -0.0401469 -0.98162 -0.17842 0.0677331
0.0888252 -0.45935 -0.130641 0.707176 0.0515103 -0.705159
-0.0352689 -0.48301 0.0628481 -0.0350777 -0.963023 -0.267125
-0.0459099 0.118922 0.0573904 -0.850203 -0.10191 0.516497
0.0598598 -0.0863972 0.0659886 0.933392 -0.125336 0.336259
-0.0107092 0.481935 0.0380293 -0.403072 0.632906 0.661031
-0.0342627 0.138375 0.0694949 -0.679106 -0.0452282 0.732646
-0.0669784 0.0376663 -0.0416409 -0.770178 -0.622175 -0.140442
0.0851054 -0.439593 0.0871791 0.578097 0.412349 0.704111
0.0585182 0.236918 0.188162 0.726046 0.350431 0.591655
0.00415653 -0.314706 0.0524816 -0.8215 -0.465862 0.328802
0.0132787 -0.180672 0.0840081 -0.290895 -0.116162 0.949677
0.0919961 0.311679 0.0460482 0.973138 0.224044 0.052977
0.000485337 0.277775 -0.142349 -0.457358 0.502264 -0.733863
0.10218 0.234479 -0.0373723 0.987311 0.0957709 -0.126672
-0.0564594 0.0640401 0.247434 -0.277787 0.0366887 -0.959942
-0.00361266 0.246797 -0.15918 -0.67745 0.534074 -0.505792
-0.0560935 0.160327 0.0387916 -0.947327 0.0428096 0.317393
0.0627868 0.205818 0.16316 0.980877 -0.189788 0.0431352
0.0396449 -0.40398 0.0363524 -0.374769 -0.691424 -0.617642
0.0168232 0.291678 -0.143691 -0.387462 0.523035 -0.759149
-0.0158773 0.265823 0.0846789 -0.935999 0.190904 0.295738
-0.0122794 0.146058 0.210846 -0.922315 0.307509 -0.234037
0.0531824 0.235942 0.194992 0.651588 0.442746 0.615962
0.0680921 -0.194697 -0.105029 0.893674 0.310835 -0.323616
0.0734583 -0.0149212 -0.0721613 0.762773 -0.228563 -0.604927
0.0798002 0.184353 -0.0623435 0.720459 -0.101505 -0.686029
-0.0604231 0.0482463 0.268533 -0.61069 -0.757245 0.231599
-0.0261371 -0.167257 -0.110213 -0.913926 -0.143574 -0.379639
0.0735802 0.254602 0.120108 0.979414 -0.197605 -0.0412344
-0.0210148 0.142277 -0.264675 0.03132 0.27888 -0.959815
-0.0087274 -0.162866 0.0381208 -0.731492 -0.167766 -0.660889
0.0602561 0.0519356 0.0827276 0.474976 0.0871141 0.875676
0.0110301 0.168986 0.156696 -0.0904341 -0.841337 -0.532891
-0.0175847 -0.122009 -0.05341 -0.730369 -0.271493 0.62678
-0.027311 0.034038 0.0793737 -0.673804 0.0956814 0.732689
0.0962037 0.283141 0.0454384 0.979658 0.0960221 0.176208
-0.0405436 0.141546 -0.259796 -0.418296 0.587616 -0.69263
0.0733363 0.0903225 0.0743123 0.550384 0.00215229 0.834909
-0.106859 0.0517222 -0.275407 -0.914655 -0.366721 -0.170066
0.0579084 -0.232261 0.0823617 0.317917 0.0572071 0.946391
0.068153 -0.447154 -0.0847841 0.0867371 -0.30029 0.949896
0.0697385 -0.408371 -0.0874063 0.12732 0.0459962 0.990795
0.0800441 -0.320316 -0.125519 0.773304 0.112128 -0.624042
0.0632441 -0.16872 -0.0738078 0.989653 0.0990285 0.103833
0.0314584 -0.327146 0.05861 -0.655401 -0.493422 0.571826
-0.0200391 0.294605 0.0547378 -0.828845 0.303841 0.469783
-0.0489894 0.0531552 0.0504997 -0.774514 0.118184 0.621418
0.0899228 -0.379588 -0.122958 0.871753 0.0626098 -0.485928
0.0672383 -0.32617 -0.133202 0.296169 0.106845 -0.949141
0.0107252 0.248382 -0.183206 -0.37595 0.80474 -0.459407
-0.051459 0.0689185 -0.0724662 -0.75796 0.209597 -0.61771
0.0231956 0.0964814 0.0993751 -0.0768375 -0.000952349 0.997043
0.074251 0.274848 0.106693 0.998076 -0.0264359 0.0560877
0.0482126 0.415833 -0.0258471 0.438525 -0.391588 -0.808922
0.0641283 -0.184087 -0.0737468 0.96668 0.124454 0.223698
-0.0481661 0.0174058 -0.0258623 -0.971179 -0.230691 -0.059933
0.0737022 0.256797 0.0990092 0.970945 -0.230081 0.0657883
-0.0339273 0.055137 0.251215 0.233084 -0.870976 -0.432519
-0.0384093 0.154717 -0.0683805 -0.583086 0.025276 -0.812017
0.012669 -0.226163 0.0881548 -0.447574 -0.0643091 0.891932
-0.0355432 0.349487 0.0306965 -0.911313 0.113591 0.395734
-0.0203441 -0.0461505 0.0886426 -0.525956 -0.103714 0.844164
-0.0523127 0.0317208 -0.0572822 -0.795005 -0.53874 -0.278794
-0.0413668 0.269237 0.0310624 -0.925887 0.334317 0.175972
0.00300842 0.0580336 0.0960212 -0.356578 0.0845752 0.93043
0.0788855 0.216795 -0.0698441 0.82244 -0.0568818 -0.566001
0.0295832 -0.084019 -0.0193222 -0.483509 -0.812566 0.325507
0.00305508 0.186061 0.227921 -0.835951 0.502073 0.221606
-0.0575875 0.0822121 0.289266 -0.576486 0.372896 0.727057
0.0570852 -0.170671 -0.1082 0.818832 0.289901 -0.495451
0.0150471 -0.210796 0.0835813 -0.319463 0.0174454 0.947438
-0.00593376 0.369244 -0.023042 -0.715189 0.24025 -0.656342
-0.0467941 0.0413251 -0.0785642 -0.797234 -0.112817 -0.593034
-0.0579534 0.114775 -0.230892 -0.819332 -0.14508 0.55466
0.0895569 -0.497889 0.0734586 0.485343 -0.761396 0.429788
0.0228297 0.193866 0.117181 -0.352272 -0.91449 0.199031
0.0870567 -0.0164533 -0.0485316 0.823247 -0.546573 -0.153369
0.0670554 0.0658695 0.0786419 0.51518 0.0312514 0.856512
0.095411 0.0588264 -0.0630753 0.77874 0.0806789 -0.622137
0.102607 -0.485206 0.0513534 0.978233 -0.0942174 -0.184887
0.0557131 -0.198112 -0.050361 0.500629 -0.189211 0.844731
-0.0072334 -0.452033 -0.142593 -0.594119 0.795192 -0.121208
0.0356507 -0.0593832 -0.016944 0.55255 -0.467297 0.690161
-0.030421 0.256797 -0.0849061 -0.806114 0.159481 -0.569865
0.0402242 0.135935 0.203895 0.828528 -0.493748 -0.264111
0.0591585 -0.243969 0.0840081 0.225667 0.011842 0.974133
-0.0627098 0.150083 -0.0420068 -0.950084 -0.0030464 -0.31198
-0.0138039 -0.283484 -0.0985046 -0.146253 0.436803 0.887589
0.0348885 0.25509 -0.182352 0.380368 0.512745 -0.769684
0.0304217 0.128984 0.193894 0.487295 -0.649118 -0.584115
-0.0418547 0.459738 0.0142624 -0.911201 0.358442 0.203056
0.00321132 -0.468375 -0.110152 -0.42422 -0.335037 0.841301
0.034858 -0.176769 0.0925453 -0.0311972 -0.0416035 0.998647
0.0440355 0.372415 -0.0260758 0.559137 0.607975 -0.563677
0.0510177 0.242528 -0.171863 0.805625 0.30995 -0.504876
-0.0120355 0.235333 0.100595 -0.995617 -0.000688898 0.0935204
0.0637625 -0.330317 0.0234094 0.239265 -0.0995624 -0.965836
0.0843126 -0.353001 -0.125885 0.657393 0.100103 -0.746869
0.00183025 0.163498 -0.156375 -0.212062 -0.44337 0.870892
0.0931548 -0.453008 -0.123689 0.884744 0.139337 -0.444762
0.00112639 -0.451789 0.0759588 -0.386905 0.898581 0.207019
0.0343092 -0.182623 0.012151 -0.1428 -0.178253 -0.973568
-0.00886455 0.318509 -0.0722833 -0.761765 0.597675 -0.249999
0.0199942 0.119532 0.189503 0.330048 -0.578681 -0.745786
0.0313974 0.183866 -0.215281 0.815466 -0.0306926 -0.57799
0.001825 0.121788 0.271216 0.451468 0.267711 0.85118
0.0074361 0.329485 0.101753 -0.715331 0.663117 0.2204
0.0361995 -0.247872 0.0909599 -0.0279467 -0.155379 0.98746
0.0324493 0.167889 -0.100822 -0.104729 -0.0127113 -0.99442
-0.0476478 6.17499e-05 -0.0491109 -0.980675 -0.175316 0.0868332
0.00344572 -0.21165 -0.124665 -0.110997 -0.14699 -0.98289
0.0523897 -0.236652 -0.123079 0.290473 0.255238 -0.922214
0.0518714 0.379001 -0.0153433 0.745746 0.44582 -0.495083
0.0637015 0.251187 -0.126616 0.981981 -0.15739 -0.104599
-0.0274635 -0.150426 -0.109298 -0.892493 -0.0268275 -0.450263
-0.0510931 0.0846513 -0.288579 0.351201 -0.188834 -0.91706
0.0182867 0.210941 0.223774 -0.390936 0.62691 0.673908
0.0999845 0.117337 -0.0313048 0.970527 0.0886218 -0.224106
0.0521153 0.392905 0.00305117 0.970321 -0.0530148 -0.235937
-0.0255426 -0.0449919 0.0112363 -0.721508 -0.5232 -0.453528
-0.0285611 0.135448 -0.206134 -0.805253 -0.133204 0.577776
-0.0145814 -0.160427 0.0456518 -0.770118 -0.147033 -0.620725
0.0979722 0.11691 -0.039842 0.963903 0.100622 -0.246506
0.00945226 -0.220675 -0.0694172 -0.505368 -0.203498 0.838565
-0.0381959 -0.479839 -0.131373 -0.825016 -0.126596 0.550746
0.0454075 -0.328609 -0.130885 -0.448834 0.0161306 -0.893469
0.0236682 -0.228602 -0.121616 -0.00890291 -0.152129 -0.988321
0.0428463 0.426322 -0.0309084 0.374013 -0.215687 -0.901994
-0.0178439 0.194842 -0.199182 -0.920338 0.39044 -0.0231093
-0.0183774 0.226917 0.119742 -0.963232 -0.268312 0.013921
0.0808368 0.103433 -0.0764299 0.65755 0.0793481 -0.74922
0.0131416 -0.468131 0.106266 0.326866 -0.00479294 0.945059
-0.0104196 0.049344 0.0907159 -0.561692 0.146793 0.81422
-0.00595279 0.3329 -0.0340489 -0.863874 0.372695 -0.338852
0.0480602 -0.463497 -0.154301 0.296214 0.168662 -0.940112
0.0333945 0.160083 -0.204549 0.935242 -0.230216 -0.268931
-0.0677711 0.0782484 0.0176849 -0.91061 0.129654 0.392403
0.0666285 0.0532771 0.0782151 0.468501 0.0699138 0.880692
-0.000826634 0.0604118 0.0932161 -0.432424 0.122783 0.893272
0.00141598 -0.480815 -0.15918 -0.442438 -0.86526 -0.23574
-0.0103891 0.279482 -0.140276 -0.636625 0.388039 -0.666434
0.0701043 0.240577 0.135963 0.990298 -0.137549 0.0197295
0.0874836 0.0238696 0.0672387 0.691949 -0.336142 0.638917
-0.068198 0.0574848 -0.0461839 -0.949004 -0.0061245 -0.315205
0.0335774 -0.335195 0.0580307 -0.797339 -0.169654 0.579196
-0.0261371 0.209233 -0.153691 -0.982012 0.180864 0.0542376
0.0101612 -0.209211 0.0342943 -0.533379 0.0627953 -0.843542
-0.0362751 0.153863 -0.190645 -0.904499 -0.160297 0.395204
0.0388217 0.123069 0.207309 0.83547 -0.477418 -0.272142
0.0054733 -0.309096 0.055805 -0.961068 -0.138807 0.238916
0.0669334 -0.344708 0.0269462 0.255346 -0.208653 -0.944067
0.0224486 -0.202869 0.0239887 -0.569572 -0.146102 -0.808852
0.0119219 -0.250067 0.081447 -0.519549 -0.157256 0.839845
0.00676532 0.304606 0.129377 -0.787 0.345985 0.510809
0.0441575 -0.237505 -0.0627094 -0.0779536 -0.106489 0.991253
0.000783587 -0.0731646 -0.0267161 -0.650927 -0.485438 0.583647
0.0361995 -0.190917 -0.0418543 -0.151961 -0.324018 0.933767
-0.0110446 0.272164 0.100839 -0.971297 0.204782 0.121023
0.0132483 0.124837 -0.191133 0.521791 -0.718455 0.459953
0.0677871 -0.292021 -0.12747 0.300364 0.139684 -0.943541
0.0472674 0.153254 0.193894 0.822373 -0.561859 -0.0895431
0.0187441 0.120264 -0.104237 -0.0984026 0.188618 -0.977108
-0.0233016 0.262408 -0.115091 -0.930239 0.35893 -0.0763181
0.0959598 0.307533 -0.0129651 0.973067 0.213875 0.0860133
0.098399 0.147278 -0.0309694 0.989039 0.00544217 -0.147554
0.0677871 -0.0685301 0.0274188 0.988919 0.0809811 -0.124423
0.0442184 0.336803 -0.116067 0.457062 0.70877 -0.537344
-0.0532884 0.190207 -0.0552699 -0.846057 0.112037 -0.521186
0.0150471 0.498522 0.00898766 0.0828052 0.996535 0.00782145
0.00787058 -0.48301 -0.133324 -0.0613734 -0.994719 0.0822692
0.0228602 -0.336171 -0.0710637 -0.429502 -0.0675966 0.900533
-0.0421291 0.10758 -0.213208 -0.557826 -0.444056 0.701173
-0.0143375 0.0683087 0.2428 0.400634 -0.868201 -0.292779
0.0124327 -0.375686 0.0352852 -0.938722 -0.160221 -0.305171
-0.0641733 0.037087 0.0392184 -0.896225 -0.294143 0.332056
-0.0183774 0.297044 0.0558659 -0.851504 0.292484 0.435193
-0.0572826 0.219966 -0.0288656 -0.992065 0.119089 -0.0403032
-0.03783 0.439493 -0.00359706 -0.872052 0.143594 -0.467874
0.00155464 0.110812 -0.226989 0.662223 -0.734334 -0.149042
-0.0102366 0.190695 -0.141739 -0.308024 -0.569877 0.761815
-0.00269225 0.128008 0.0928502 -0.341091 0.0110906 0.939965
-0.0033421 0.0861758 -0.102956 -0.349063 0.269527 -0.897502
0.025147 -0.382759 -0.100151 -0.745098 -0.575053 0.337851
0.0503774 -0.360807 0.0760198 -0.53977 0.327481 0.775503
-0.0394765 0.0841025 0.0583356 -0.828159 -0.0062339 0.560459
0.0917522 -0.00538165 -0.0451167 0.947681 -0.280031 -0.153245
0.0599817 -0.419347 0.0876669 0.288916 0.409978 0.865127
0.0898008 -0.423738 -0.118872 0.850958 0.194627 -0.487844
0.0536703 0.178255 0.154257 0.499542 -0.567091 -0.654878
-0.0564594 0.0602289 -0.0698441 -0.763956 0.0488052 -0.64342
0.0260311 0.463153 -0.0345062 0.0780869 0.232929 -0.969354
0.0927889 0.268262 -0.048928 0.91686 0.0389884 -0.397301
0.0665066 -0.0419734 0.0758368 0.799541 -0.0385355 0.599374
0.030132 -0.477156 0.104863 0.310552 -0.0890208 0.946379
0.0734583 0.349731 -0.0048319 0.826984 0.562124 -0.0106657
-0.00733248 0.38388 0.0385781 -0.590737 -0.192931 0.783459
0.0634271 -0.0571879 -0.0474645 0.989001 -0.104743 0.104435
0.0745559 -0.441788 -0.13991 0.528956 0.0386189 -0.84777
0.0214424 0.138375 0.0954724 -0.112753 -0.0245982 0.993319
0.0568107 -0.166647 0.0837032 0.394124 0.198398 0.897388
-0.0244144 0.135082 0.241458 -0.883196 0.454581 -0.115417
0.0798002 -0.215918 -0.0982607 0.89567 0.343873 -0.282005
0.0682749 -0.196649 -0.0772226 0.953749 0.124311 0.273696
-0.0270823 0.476569 -0.00899378 -0.694075 0.595116 -0.405088
0.0759584 0.297776 0.0946796 0.965894 0.173626 0.192102
0.0947402 0.188134 0.0572685 0.83141 -0.0164812 0.555414
0.089252 0.00378436 -0.0595385 0.844751 -0.213336 -0.490798
0.0579693 -0.240067 -0.122104 0.404479 0.221589 -0.887296
-0.0323723 -0.0724938 0.0464141 -0.92274 -0.215824 -0.319328
0.0978502 0.169962 0.0489142 0.895065 -0.0377102 0.444338
0.0905936 -0.390321 -0.10259 0.943567 0.0981068 0.316316
-0.0267622 0.257529 -0.126616 -0.934068 0.271248 -0.232252
0.0292631 -0.400322 0.0776053 -0.848736 -0.00102816 0.528816
-0.0097488 -0.303973 -0.0903943 0.0421466 0.311364 0.949356
0.0700434 -0.343976 -0.0742956 0.458803 0.0623868 0.886345
0.0546765 -0.308852 0.0201775 0.122984 -0.047748 -0.991259
-0.00999272 -0.290802 -0.0968582 -0.223121 0.376775 0.899031
0.0643113 -0.417396 -0.145154 0.384381 -0.116914 -0.915741
0.0671163 0.326315 0.0984604 0.809741 0.430905 0.398297
0.0259092 -0.391784 -0.125275 -0.728547 0.0149378 -0.684833
0.102607 0.198135 0.0361694 0.987889 0.0522519 0.146099
0.0440049 0.319729 -0.132348 0.416838 0.492503 -0.763994
-0.000229282 -0.122375 0.0234704 -0.670729 -0.108881 -0.733667
0.0416877 -0.243481 0.0212294 0.0507033 0.0585581 -0.996996
-0.0405436 -0.463741 0.0796786 -0.298151 0.769867 -0.56428
-0.0168377 0.362902 -0.000132644 -0.948787 0.152088 -0.276897
0.0487309 0.334852 -0.113689 0.534136 0.629689 -0.564083
0.0188203 -0.384955 0.029111 -0.825366 -0.455298 -0.333878
0.0671774 -0.200674 -0.0802106 0.935262 0.241636 0.258644
0.0495542 0.202525 0.120047 0.651706 -0.73967 -0.167833
-0.0460623 0.10447 0.0469629 -0.844013 -0.133189 0.519522
0.0201466 -0.439593 0.0676655 -0.764986 0.626457 0.149495
-0.0528616 0.168377 -0.0555138 -0.823351 0.0864379 -0.560911
0.0369313 0.256066 0.187674 0.0611998 0.596567 0.800227
0.0310315 -0.400078 0.0301934 -0.491484 -0.662915 -0.564789
0.0167012 -0.269581 -0.108627 -0.795362 -0.177675 -0.579508
0.0356507 -0.205186 -0.0480438 -0.228632 -0.374466 0.898611
0.0519018 -0.0596576 -0.0788081 0.829259 -0.175006 -0.530756
0.0597987 -0.0468518 -0.0692952 0.846905 -0.378943 -0.373034
-0.0229662 0.0859319 -0.259552 0.78516 -0.542509 -0.298676
0.0901058 -0.372759 0.0428467 0.916994 -0.0287377 -0.397864
0.0460478 -0.175184 -0.118872 0.266234 0.0488357 -0.962671
0.0729095 -0.165183 0.0727269 0.812148 0.154414 0.562648
0.007539 0.202647 0.125657 -0.432634 -0.8366 -0.336047
0.0207107 -0.463009 -0.165765 0.274662 0.321154 -0.906323
8.03864e-05 -0.115058 0.0925453 -0.399938 -0.124609 0.908032
-0.0383788 0.0597411 0.281461 0.239352 -0.779319 0.579113
-0.0487454 0.254114 -0.0117912 -0.951535 0.287283 0.109771
-0.0186061 -0.0945685 -0.111493 -0.235306 0.144089 -0.961181
-0.027936 -0.484962 0.101326 0.130528 -0.952737 0.274327
0.089435 0.00559089 0.0439749 0.752807 -0.309801 0.580779
0.0365654 -0.0711522 -0.0200388 0.647073 -0.395076 0.652082
0.0548289 -0.328853 0.0882158 -0.305709 -0.217449 0.926962
-0.0118221 -0.251043 0.0604394 -0.822282 -0.522155 0.22629
0.0848005 0.331193 0.0322362 0.865664 0.498455 0.046566
0.0609879 -0.292509 -0.0649657 0.226916 -0.174588 0.958138
-0.0286678 -0.485206 0.0854717 -0.00526742 -0.999953 0.00818396
-0.0337139 -0.123839 -0.101493 -0.956412 -0.0547631 -0.286841
0.0643722 0.448762 0.0342181 0.853262 0.255232 0.454753
0.0508957 0.162157 0.162428 0.479764 -0.637122 -0.603243
0.060622 0.200208 -0.0859428 0.629194 -0.160864 -0.76042
0.0552558 0.325583 0.126267 0.617388 0.590994 0.51919
0.0518714 0.177646 0.153281 0.388875 -0.534566 -0.750344
0.0586401 0.239845 -0.101432 0.980413 -0.155422 -0.120974
0.0136218 -0.177745 -0.0494158 -0.528681 -0.316812 0.787481
-0.0537458 0.222161 -0.00916148 -0.980781 0.164068 0.105599
-0.0100689 0.21155 0.119498 -0.826662 -0.557093 -0.0792267
0.0316413 -0.454472 -0.156375 0.133771 0.404815 -0.904561
0.100167 0.00662758 0.016633 0.89031 -0.452205 -0.0534774
0.0320834 -0.464472 0.100412 0.271546 0.124119 0.954388
0.020482 0.153132 -0.0989315 -0.328022 0.231198 -0.915942
0.0899228 0.246431 0.0601345 0.78119 -0.0721129 0.620114
-0.0226765 -0.0480409 0.00962414 -0.706486 -0.490538 -0.510147
0.0153444 -0.0683472 -0.118079 0.224602 -0.0720793 -0.971781
-0.0287897 0.43681 -0.0203132 -0.650126 0.10557 -0.752457
0.0514445 0.383148 -0.00596003 0.914626 0.259666 -0.309892
0.0176922 0.182768 0.150476 -0.0458997 -0.753047 -0.656364
0.0750437 -0.387882 -0.0853939 0.43322 -0.226487 0.872367
0.0561399 -0.450081 -0.148203 0.23544 0.214626 -0.947894
-0.0511846 0.252651 -0.0372503 -0.962343 0.258215 -0.0849705
0.000107094 -0.482279 -0.117347 -0.0319292 -0.794412 0.606539
0.0612623 -0.409591 -0.0847841 -0.203347 0.0200198 0.978902
-0.00936006 -0.187746 -0.119421 -0.376738 -0.00372945 -0.926312
0.010245 -0.0376438 -0.119421 -0.00368744 0.0859014 -0.996297
0.0485784 0.427541 0.0478471 0.590848 -0.253195 0.766022
0.00293788 0.00187684 0.0982165 -0.198496 -0.0650261 0.977942
-0.0752716 0.0396482 -0.0120809 -0.766748 -0.594618 -0.241923
-0.018103 0.193622 -0.199426 -0.920338 0.39044 -0.0231093
-0.0247346 -0.134449 0.07541 -0.759343 -0.0589474 0.648015
0.0336384 -0.48301 -0.124421 -0.0906142 -0.948656 0.303053
-0.054447 0.162645 0.041932 -0.938008 0.0342957 0.344913
0.0466881 0.471203 -0.0256642 0.492779 0.439866 -0.750791
0.00131027 -0.243725 0.0727269 -0.681117 -0.237749 0.692499
0.0497981 0.458031 0.0487923 0.548591 0.256576 0.795749
0.0667505 0.258017 -0.0987485 0.950781 -0.282839 -0.126562
0.0126766 0.155571 -0.162351 -0.0440085 -0.63319 0.772744
-0.0340492 0.139838 0.0698608 -0.687276 -0.0382878 0.725387
-0.0567643 0.174841 0.0300562 -0.952029 0.100416 0.289062
0.0693116 0.350463 0.038944 0.785334 0.608767 0.112484
0.00239761 0.403149 -0.0260148 -0.183397 -0.221726 -0.957707
0.0705922 0.245577 0.150598 0.987949 0.0168418 0.153859
0.0885203 0.29802 0.0616895 0.919383 0.110262 0.377595
-0.0399339 -0.0790187 -0.0728321 -0.983141 -0.131211 0.127349
0.0126994 0.344608 0.0671167 -0.723008 0.503542 0.472975
0.0193234 -0.146036 0.0963261 -0.118887 -0.167907 0.978608
0.0909595 0.262895 0.0600126 0.862756 -0.00373532 0.505607
-0.0391716 0.146668 -0.258089 -0.418296 0.587616 -0.69263
-0.0713689 0.0952618 -0.00928343 -0.990757 0.125082 -0.0524834
0.0661407 -0.237871 -0.117164 0.534267 0.161194 -0.829804
-0.0386533 -0.485206 0.0993141 -0.206243 -0.969549 0.132051
0.0644942 0.215575 0.162306 0.986611 -0.145677 0.0733217
-0.0227528 -0.178111 0.0566282 -0.993041 -0.0260779 -0.114844
0.0752267 -0.44252 0.0365658 0.330366 -0.290155 -0.898147
-0.00903228 -0.00605244 -0.114542 -0.0703429 0.230615 -0.970499
-0.0374946 0.269725 -0.0751493 -0.784454 0.247276 -0.568758
0.0224181 -0.323975 -0.106493 -0.792494 -0.00822624 -0.609825
-0.0218838 -0.104142 0.0442188 -0.846749 -0.139631 -0.513342
-0.0537458 0.0890419 -0.23138 -0.334099 -0.251178 0.908453
0.00349527 -0.205796 -0.070027 -0.562281 -0.249306 0.788471
-0.0528006 0.245455 -0.024536 -0.971688 0.222672 0.078991
0.0991308 0.232406 0.0238058 0.994019 0.106928 0.0222011
-0.0175542 -0.103655 0.0380293 -0.765675 -0.121294 -0.631688
0.0132254 0.481935 0.0447371 -0.0472679 0.693311 0.719087
0.0782757 0.21277 -0.0707588 0.801843 -0.0919165 -0.590423
0.0807758 0.0237324 0.0743123 0.564284 -0.314821 0.763198
-0.0738691 0.0591922 -0.25004 -0.145619 -0.149258 0.978017
0.0696775 -0.202137 0.0647995 0.891801 0.13375 0.432206
0.0467186 -0.10896 -0.107164 0.862786 0.212305 -0.458831
0.00971901 -0.314462 0.0569636 -0.687368 -0.500202 0.526615
0.0877275 0.28558 -0.0622826 0.894391 0.037361 -0.445722
0.0647991 -0.0846898 0.05861 0.946063 -0.0993603 0.308369
0.0457734 -0.269093 -0.125275 -0.0176709 0.128161 -0.991596
0.108034 0.0328489 -0.035299 0.956461 -0.195061 -0.217101
-0.0217008 -0.175306 -0.082162 -0.864091 -0.11794 0.489324
0.0843126 0.0961765 0.0641287 0.705648 0.0254769 0.708105
0.00634226 0.0802608 0.231457 0.46072 -0.88027 -0.113409
0.0169452 0.196184 0.106022 -0.00405935 -0.876842 0.480762
0.0343701 0.191183 0.096631 0.0094076 -0.600252 0.799755
-0.00639869 0.310704 -0.0964923 -0.803338 0.543856 -0.24263
0.0753486 -0.185185 0.0344925 0.920819 0.0416053 -0.387764
0.00221853 -0.2969 -0.0843573 -0.112147 0.38763 0.914968
0.0167469 0.293873 -0.141373 -0.376252 0.442214 -0.814175
0.0429683 -0.469839 -0.15796 0.401416 -0.273542 -0.874094
0.0290344 -0.379345 -0.0866745 -0.586117 -0.60563 0.538219
0.0559875 -0.158353 -0.0452387 0.577639 -0.164689 0.799507
0.006651 -0.482279 -0.146496 -0.169731 -0.957851 -0.23176
0.042572 0.242406 -0.185401 0.717016 0.315982 -0.621324
-0.0658198 0.128252 -0.000498523 -0.980879 0.0831055 0.17598
0.0630612 -0.068896 0.0643116 0.952136 -0.116116 0.282762
0.0172348 0.345584 -0.0917968 -0.381805 0.862014 -0.333401
-0.0222039 0.35656 -0.0159226 -0.833373 0.217449 -0.50814
0.050042 0.279482 -0.149789 0.700072 0.414178 -0.581684
-0.0560325 0.0503502 0.271216 -0.229213 -0.968403 0.0982687
-0.0185908 0.116544 -0.188572 -0.446636 -0.548007 0.707251
0.0847395 -0.242018 -0.0923456 0.984667 0.0859405 0.151808
-0.0379215 -0.06603 0.0713853 -0.840921 -0.0679019 0.536882
0.0310925 -0.416176 -0.106249 -0.857626 0.324965 0.398592
-0.0125081 -0.27885 -0.104359 -0.170729 0.418507 0.892022
0.0276624 -0.135181 0.0963871 0.235155 -0.0773256 0.968877
-0.0471295 0.00569001 -0.032067 -0.992154 -0.121699 0.028644
0.0624819 -0.0534071 0.0708975 0.85631 -0.155651 0.49245
-0.0370983 0.0983718 -0.0735029 -0.690156 0.301326 -0.657942
-0.0707591 0.0951399 -0.0191393 -0.987831 0.126111 -0.0910265
0.0556217 0.285824 0.157306 0.577732 0.504549 0.641605
0.0289887 0.166303 -0.148447 -0.225437 -0.53383 0.814987
0.104802 0.0755653 -0.0278899 0.98345 0.0871964 -0.158819
-0.0205117 -0.169452 -0.115213 -0.861289 -0.100834 -0.49801
-0.0125691 0.465593 0.0451335 -0.495468 0.35846 0.791213
0.0255128 -0.0878607 0.096631 0.12148 -0.0973575 0.987808
0.0913863 -0.00747784 -0.024719 0.840243 -0.530075 0.114074
0.0363215 -0.382759 -0.0839914 -0.576343 -0.552867 0.601803
0.0154664 -0.217504 0.0879109 -0.373225 -0.036654 0.927016
-0.0163803 0.0822121 0.081386 -0.626038 -0.00597035 0.779769
0.0317328 0.0846513 0.102485 0.245211 -0.0306321 0.968986
0.0401937 -0.44813 -0.0935652 -0.436433 -0.140054 0.88877
-0.0324638 -0.104142 0.0726049 -0.983553 -0.13898 0.115357
0.0473894 0.485838 -0.00754551 0.569731 0.763909 -0.303067
0.065165 0.244358 0.102851 0.927888 -0.372554 0.0150738
-0.0132856 0.2246 0.10279 -0.987284 -0.105353 0.11904
-0.00661977 0.241065 -0.163692 -0.80003 0.360554 -0.479534
0.00798109 -0.19177 0.0313063 -0.600056 -0.211451 -0.771506
0.0435476 -0.230676 0.0924843 0.297504 -0.0188054 0.954535
-0.0383484 0.0861758 0.0584271 -0.828159 -0.0062339 0.560459
0.0630612 0.212648 0.179503 0.985783 0.0179947 0.167059
0.0904107 -0.361051 0.0503473 0.996062 -0.0859259 0.0218284
0.0686409 0.0219945 -0.0827108 0.601712 -0.270034 -0.75168
0.0406511 0.0544968 -0.101919 0.504987 0.187547 -0.842505
0.065165 -0.223236 0.02687 0.347557 -0.0514895 -0.936244
0.0816296 -0.365197 0.0869352 0.547911 -0.149264 0.823112
0.0263513 0.150327 -0.216745 0.907293 -0.215723 -0.360948
0.0926669 0.304362 0.0486703 0.974371 0.118909 0.19095
0.00642993 -0.00512248 -0.112896 0.173518 0.318858 -0.931784
0.000637316 -0.484718 0.0594333 -0.0324536 -0.891236 -0.452378
0.0270068 0.139228 -0.184181 0.773275 -0.591704 0.227886
0.0847395 -0.383491 0.0326326 0.75956 -0.0488259 -0.648602
0.0646772 -0.343001 0.0832764 0.245714 0.127033 0.960983
0.0608964 -0.117375 0.0597382 0.97793 0.0585904 0.200548
-0.0177219 -0.0637127 0.0862644 -0.497254 -0.148975 0.854719
0.0633661 0.27436 -0.132714 0.918185 0.0832577 -0.387305
0.0325103 -0.402273 0.0865693 -0.382159 -0.247122 0.890441
0.0419316 -0.258117 -0.0587457 -0.160915 -0.0535274 0.985516
-0.0357872 0.138619 0.0677875 -0.687276 -0.0382878 0.725387
0.0129738 -0.468619 -0.170888 0.596754 0.0843093 -0.797983
0.019735 -0.185429 0.0204366 -0.48945 -0.19683 -0.849527
0.0667505 -0.294948 -0.0683196 0.504497 -0.13149 0.853342
0.0416877 -0.289582 -0.129056 -0.0911044 0.0719863 -0.993236
0.0360471 0.158132 -0.187962 0.946509 -0.322671 -0.00205975
0.0691287 -0.0184352 -0.0743566 0.802219 -0.278017 -0.528348
0.0944963 -0.340073 0.0477251 0.996533 -0.018963 -0.0810114
-0.00770594 -0.187746 -0.0724052 -0.634345 -0.246374 0.732739
0.00821359 0.125081 0.266094 0.520659 0.22805 0.822744
-0.0507273 0.0502282 0.295364 0.527216 -0.42638 0.735012
-0.0328602 0.0844684 0.0644946 -0.769066 -0.05672 0.636647
0.0540971 -0.20043 0.0869962 0.440376 -0.110731 0.890959
0.0513531 0.154107 0.096509 0.358918 0.0660264 0.931031
0.0248573 -0.335439 -0.070149 -0.36683 -0.0507428 0.928903
