ply
format ascii 1.0
element vertex 814
property float x
property float y
property float z
property float nx
property float ny
property float nz
element face 0
property list uchar int vertex_indices
end_header
0.0309057 0.16633 0.0968042 -0.0610978 -0.0362673 0.997473
-0.050208 0.19545 0.0505667 -0.888981 0.0274787 0.457119
-0.0718342 0.0659358 0.0181958 -0.895471 0.22879 0.381822
0.0827173 -0.480873 0.0836457 0.306883 -0.364868 0.87903
0.0771737 0.142816 0.0755434 0.638842 0.0399125 0.768302
0.0939874 0.0770839 0.0567499 0.803664 0.0232919 0.594627
-0.0406132 0.0786069 -0.243368 0.308538 -0.75718 0.575746
-0.0449385 0.118874 0.0611056 -0.854489 -0.0991008 0.509929
-0.00114628 -0.211855 0.0376518 -0.558939 0.0313925 -0.828615
0.00795445 0.20142 0.130797 -0.390471 -0.86435 -0.316907
0.00784026 -0.370732 -0.111173 -0.617675 0.0502764 -0.784824
0.0376677 0.231635 0.21121 0.20656 0.639346 0.740654
0.0631623 0.241139 0.177948 0.842842 0.31871 0.433638
-0.0493551 -0.03388 -0.065545 -0.95988 -0.129031 0.24896
0.046105 -0.148621 -0.0971619 0.904696 0.0475068 -0.423401
-0.00345261 0.211654 -0.216076 -0.545735 0.679023 -0.491021
-0.044177 -0.0313671 -0.0916792 -0.876631 -0.0121066 -0.481012
-0.0387247 0.462153 0.0247979 -0.903086 0.343075 0.258332
-0.0336684 0.270624 -0.0794345 -0.87815 0.230956 -0.418942
0.0548773 -0.0642481 0.0919916 0.751551 -0.0592156 0.657012
0.0049999 0.101147 0.267134 0.777485 -0.319655 0.541607
0.0478716 0.439978 -0.0268309 0.449055 -0.0709232 -0.890685
-0.0300285 -0.0187721 -0.106483 -0.594542 0.03909 -0.803114
0.0144195 0.0936539 0.222907 0.594412 -0.716358 -0.365384
-0.049081 0.0870747 0.256656 -0.41137 0.0491914 -0.91014
-0.000517098 0.373942 0.0526379 -0.453159 0.157603 0.877387
0.0609083 -0.390469 0.0171678 0.340404 -0.116764 -0.933001
-0.0584929 0.20142 -0.0373699 -0.878855 0.0682578 -0.47218
0.102029 0.0228965 -0.0462032 0.875464 -0.301707 -0.377538
-0.0568177 0.175468 0.0329306 -0.958298 0.0535442 0.28071
-0.0379023 0.249667 0.0620803 -0.898952 0.252723 0.357794
-0.00318993 -0.12669 -0.115559 -0.165596 0.121806 -0.978643
-0.0372322 -0.122913 -0.0988677 -0.960927 -0.107232 -0.255186
0.0175645 -0.393637 0.0434696 -0.932428 -0.359199 -0.0394332
-0.0169614 -0.471126 0.108927 0.178208 0.349098 0.919985
0.043059 -0.477705 -0.156619 0.592305 -0.58647 -0.552474
-0.000104469 0.302789 -0.123723 -0.748255 0.440886 -0.495716
0.0166659 0.112478 0.198539 0.39427 -0.610531 -0.686879
0.0558825 -0.318098 0.0234577 0.167701 -0.0740039 -0.983056
-0.0185453 0.284757 -0.0887551 -0.896208 0.284534 -0.34037
0.0719955 0.346163 0.0520896 0.72545 0.675192 0.133559
0.00659903 -0.448952 -0.116473 -0.854995 0.281367 0.435679
0.0368453 0.120702 -0.0978321 0.402388 0.0826721 -0.911729
-0.00462533 0.374186 -0.0100934 -0.539686 0.0632422 -0.839487
-0.0353742 0.0912781 -0.278944 0.771594 -0.209376 -0.600671
0.0145566 0.466539 0.0586993 -0.254576 0.339108 0.905647
0.00141565 -0.484285 0.10119 0.176892 -0.642548 0.745548
0.0198946 0.150248 0.253853 0.449696 0.0692637 0.890492
-0.0116386 0.0946286 -0.0906436 -0.461703 0.237735 -0.854583
-0.0267846 0.300108 0.0410328 -0.869681 0.465497 0.164217
-0.0474057 0.030816 0.00785196 -0.669265 -0.711158 0.215264
0.0383074 -0.0280013 -0.0935677 0.515002 0.03593 -0.856436
0.0625836 0.188505 0.0795641 0.734656 -0.0854092 0.673042
0.0554256 -0.249381 -0.0594531 0.292712 -0.0171208 0.956047
0.0466228 -0.185051 -0.0473911 0.626864 -0.0390985 0.778147
-0.00142517 0.193744 0.106429 -0.56003 -0.454621 0.692593
0.104283 0.115463 0.0252853 0.991588 -0.022452 0.127472
0.0568267 -0.411913 -0.0801046 -0.163988 -0.010486 0.986407
0.0595985 0.407082 0.0187898 0.871621 -0.424056 0.245871
-0.0213933 0.0872574 0.0798078 -0.634414 0.0395606 0.77198
0.0807679 -0.448952 0.0902858 0.496336 -0.00542376 0.868114
-0.010367 0.392218 0.0460891 -0.34903 -0.162499 0.922915
0.0337385 0.384664 0.0490132 0.384948 0.370523 0.845298
-0.0516091 0.120519 -0.278213 0.0604634 0.247035 -0.967118
-0.0539849 0.100355 0.293938 -0.289072 0.563495 0.773893
0.0653554 0.460691 0.0201909 0.881379 0.409989 0.23469
0.100506 -0.473319 -0.100817 0.950056 0.0837875 0.300621
-0.030455 0.0755001 0.246299 -0.141609 -0.687935 -0.711823
0.0495774 0.0184037 -0.0899735 0.519266 -0.24889 -0.817567
-0.0430804 0.218233 0.0622631 -0.872705 -0.00357795 0.488234
0.104344 0.100416 0.015028 0.999298 0.00943436 0.0362546
-0.0684228 0.114915 -0.273583 -0.416325 0.815432 -0.402174
0.0364189 0.492856 0.0193533 0.415611 0.890311 0.18605
-0.00812815 0.405864 -0.0235109 -0.148229 -0.25061 -0.956673
0.0159882 0.495293 0.00156493 0.0440304 0.954127 -0.296146
0.0221638 -0.390226 0.0276306 -0.580369 -0.328542 -0.745138
0.0222857 0.175346 -0.144435 -0.0199253 -0.620476 0.783972
0.0863115 -0.423122 -0.129083 0.794698 0.199832 -0.573168
0.0154171 0.344214 -0.0719415 -0.556336 0.825162 -0.0979666
-0.0229314 0.305713 -0.0502543 -0.825766 0.549825 -0.125711
-0.0385724 0.241626 0.0684464 -0.878468 0.163971 0.448784
0.0617917 0.30815 -0.11294 0.800728 0.341671 -0.492033
0.0183259 0.121981 -0.207425 0.8095 -0.58712 0.000433889
0.00944701 -0.440667 -0.131033 -0.604556 0.752843 -0.260267
-0.0231752 0.425845 -0.0218965 -0.368349 -0.0677802 -0.927213
-0.0139231 -0.257179 0.0557448 -0.877205 -0.464645 0.120899
-0.0179057 0.144765 0.235578 -0.869476 0.472604 -0.143723
0.0673048 -0.379991 -0.0793127 0.382353 -0.151953 0.911436
0.0873472 -0.345633 0.0346516 0.719683 0.14876 -0.678179
0.0620962 -0.127299 0.032032 0.979815 0.0962968 -0.175185
0.0457395 0.00614756 0.0858997 0.522925 -0.186641 0.831694
0.078453 0.27501 0.0933318 0.969618 -0.0674418 0.235143
-0.0152405 -0.0619028 -0.0368217 -0.697922 -0.372216 0.611849
0.0707772 0.280371 0.138107 0.919276 0.178976 0.35057
0.101968 0.18022 -0.0246683 0.995978 -0.0775235 -0.0449156
0.104405 0.0714794 -0.0353291 0.979727 0.0797308 -0.183788
0.0411401 0.13514 0.212672 0.919357 -0.370576 -0.132122
-0.0133063 0.407082 -0.0228255 -0.147956 -0.20306 -0.967923
0.013559 -0.482823 -0.1381 -0.0564923 -0.993774 0.0960261
0.085215 0.0613059 0.067959 0.70596 0.0395019 0.70715
0.0637715 -0.230618 0.0304786 0.673981 0.123934 -0.728279
0.0574055 0.208364 0.204265 0.891431 0.150856 0.42731
-0.030455 -0.147524 0.0740205 -0.949099 -0.0635562 0.308499
0.104831 0.0202465 -0.00314868 0.947643 -0.318466 -0.023494
0.0814989 -0.348801 -0.124941 0.871241 0.0447333 -0.488812
-0.0116158 -0.159952 0.0346363 -0.761415 -0.163592 -0.627283
0.0774173 0.34592 -0.0269832 0.725881 0.680236 -0.101862
0.0802196 -0.0176299 -0.0201908 0.597115 -0.784325 0.168189
0.00341409 0.295966 0.130614 -0.84798 0.254278 0.465052
0.0383683 -0.332718 0.0743251 -0.667529 -0.347492 0.658524
-0.00408848 0.201663 0.180994 -0.992427 -0.0523328 0.111133
0.0289867 -0.00760491 -0.101244 0.477305 0.0129994 -0.878642
0.0712036 -0.31493 0.0262295 0.469762 -0.00224757 -0.88279
-0.02217 -0.455531 -0.149309 -0.455649 0.872014 -0.178818
0.0403177 -0.0572729 -0.0987458 0.806207 -0.179028 -0.563896
0.00400042 0.255759 0.16747 -0.821373 0.462605 0.333681
0.0624008 -0.0211023 0.0012451 0.492501 -0.852587 -0.174753
-0.0298001 0.297672 0.0277829 -0.872915 0.486798 0.0323463
0.054725 0.235291 0.19464 0.720007 0.387947 0.575401
-0.0421971 0.0876839 -0.284793 0.407041 -0.10117 -0.90779
0.0472625 0.0314556 -0.105386 0.508769 -0.10951 -0.853909
0.0596899 0.0434262 0.0843158 0.517584 0.0225537 0.855335
0.0704726 0.271842 -0.102279 0.984558 -0.109307 -0.136739
-0.0327547 -0.0495057 -0.0497365 -0.723603 -0.321589 0.61072
-0.0140221 -0.231349 0.0448707 -0.841278 0.00202383 -0.540599
-0.00604552 -0.308838 -0.0951516 0.290308 0.368352 0.883197
0.00726148 0.141963 0.0955858 -0.250565 -0.0494211 0.966838
0.0646853 0.359565 -0.00825065 0.768087 0.632112 -0.102359
-0.00649095 -0.246213 -0.0852218 -0.867986 -0.357696 0.344461
-0.0141287 -0.272287 -0.104107 -0.526866 0.234794 0.816875
0.0975816 0.103401 0.0494397 0.864995 0.0794225 0.495456
0.0280882 0.123321 0.242279 0.855912 -0.178563 0.485314
0.0611215 -0.458455 0.0913215 0.212211 -0.0401241 0.9764
0.0938655 0.000444028 -0.00644592 0.816476 -0.5773 -0.00954561
0.00507222 -0.0728377 0.0983881 -0.274642 -0.128362 0.95294
0.0393125 -0.135097 -0.117692 0.839699 0.058136 -0.539932
-0.065255 0.0886586 0.29077 -0.705207 0.302356 0.641299
0.0209759 0.047325 -0.112818 0.184391 0.0981495 -0.97794
-0.0248656 0.149273 -0.0766322 -0.382594 0.110854 -0.917242
-0.00525734 -0.340516 -0.0916792 -0.867007 -0.272751 0.41702
0.0887483 0.305713 0.0633292 0.934061 0.199375 0.296275
0.00589465 0.0532951 0.103018 -0.206816 0.0939942 0.973854
0.0575578 -0.244264 -0.0593312 0.303322 -0.106587 0.946908
0.0532021 -0.201255 0.0178531 0.539953 -0.02895 -0.841197
0.00608883 -0.0761883 -0.0205106 -0.57195 -0.455989 0.681871
0.0182193 -0.0657711 0.00241018 0.0777477 -0.359688 -0.929828
0.00426697 0.445827 -0.0285062 -0.217045 0.00214118 -0.976159
0.0344085 -0.328819 0.0693297 -0.645207 -0.383665 0.660688
-0.0218045 0.244916 -0.119093 -0.995049 -0.0631215 -0.0767677
0.0674267 0.43413 -0.00933196 0.83139 -0.16025 -0.532082
-0.0478626 0.0201704 0.0121801 -0.851539 -0.514926 0.0986521
0.053263 0.222985 -0.164173 0.974224 -0.0642191 -0.216249
0.0667565 0.321796 0.106612 0.794854 0.408912 0.448328
0.0809507 -0.459673 -0.0919229 0.216457 -0.0231715 0.976017
0.0355051 0.037913 0.0993628 0.49615 -0.0469144 0.866968
0.0868598 0.307175 0.0673803 0.924181 0.199227 0.32588
0.0117924 0.256003 0.179532 -0.674595 0.541594 0.501595
-0.022703 -0.0599534 -0.106361 -0.364191 -0.0941519 -0.926553
-0.0347954 0.457279 0.0357786 -0.671673 0.267168 0.690997
0.0553951 0.205684 0.108074 0.95699 -0.280854 0.0727375
-0.0224746 0.174981 0.0842549 -0.618649 0.0985396 0.779463
0.0658427 -0.260103 0.0263666 0.565894 0.0755494 -0.821009
0.0322763 -0.467227 0.0407282 -0.261326 -0.262812 -0.928783
0.0916724 0.141841 0.0597654 0.786116 -0.0511257 0.615961
0.06566 0.238458 -0.081323 0.793724 -0.34104 -0.503679
0.0677922 -0.194432 0.0287424 0.849485 0.0661269 -0.523453
0.0448866 0.094385 -0.0953953 0.379797 0.170836 -0.909159
0.0522273 -0.181639 -0.106848 0.847928 0.343806 -0.403503
-0.0134738 0.32277 -0.0382228 -0.801638 0.56931 -0.18238
-0.0610211 0.100599 -0.0464469 -0.880289 0.140552 -0.45314
0.0612434 0.197277 0.14225 0.863537 -0.473779 -0.172733
-0.0572746 0.160726 0.0381392 -0.949312 0.0388337 0.311929
0.00433548 0.102183 -0.101731 -0.317352 0.093044 -0.943732
0.0470187 -0.401679 -0.0829678 -0.37287 -0.324136 0.869427
0.0950839 0.282076 0.0290013 0.996206 0.0869015 0.00474706
0.0404395 -0.129858 -0.107579 0.846221 0.117852 -0.519635
-0.00876782 0.267212 0.095464 -0.949237 0.0918629 0.30085
0.0060736 -0.122669 0.0121268 -0.526432 -0.131377 -0.840005
-0.0415879 0.153294 -0.223264 -0.858711 0.153337 0.488982
0.0213262 0.358591 -0.0367912 -0.146178 0.691503 -0.707429
-0.0402173 -0.0634257 0.0737159 -0.879064 -0.125419 0.459909
0.087469 -0.360985 0.0488609 0.943764 -0.13215 -0.303061
0.059233 -0.210027 -0.0706622 0.868338 0.103617 0.485029
-0.0242108 0.0284706 0.0844985 -0.678513 -0.0605716 0.732087
-0.038146 -0.481117 -0.130911 -0.632537 -0.407903 0.658417
0.0261997 -0.268144 -0.126281 -0.446652 -0.0214512 -0.894451
0.0373936 -0.145941 0.0118831 0.405338 -0.0455212 -0.913033
0.0497602 0.127342 0.0952203 0.373771 0.0257627 0.927163
-0.0237843 0.167792 -0.162102 -0.764528 -0.0484194 0.642769
-0.0368363 -0.117065 -0.100817 -0.886088 0.0027093 -0.463509
0.103186 0.063499 -0.0441319 0.958784 0.0525784 -0.27923
0.076199 0.331786 0.0771273 0.800575 0.510163 0.314346
0.00786691 0.31546 -0.129449 -0.55251 0.44333 -0.705827
-0.0180579 0.263313 -0.141145 -0.534226 0.423914 -0.731368
0.0518314 -0.117918 0.0885192 0.765743 0.0509384 0.641127
0.0391298 -0.182857 -0.0408728 0.447253 -0.0486115 0.893086
0.0789403 -0.360741 0.0885192 0.446569 -0.0225903 0.894464
0.0937436 0.221279 0.0615016 0.807913 0.0787929 0.58401
-0.0582797 0.129901 0.0338748 -0.936604 -0.0322053 0.348905
-0.0127885 -0.231593 -0.10368 -0.860952 -0.431167 -0.269919
0.0741277 -0.467227 -0.141633 0.475506 -0.0828405 -0.875803
0.014686 -0.183954 -0.0459291 -0.460502 -0.310316 0.83165
-0.068971 0.107848 -0.246535 -0.798691 0.3071 0.517476
0.0496687 0.205318 -0.141267 0.918098 -0.396332 -0.00407568
-0.0839571 0.0579858 0.267134 -0.893521 0.286732 -0.345551
-0.00552008 -0.0525212 -0.015698 -0.518284 -0.80104 0.299528
-0.00808247 -0.0847169 0.0933318 -0.428548 -0.0169422 0.90336
-0.0111132 0.245769 0.101434 -0.998453 0.0389217 -0.0397031
0.0514354 0.105046 -0.0907654 0.440084 0.129357 -0.88859
0.00457343 -0.260834 -0.0826023 -0.631339 -0.522341 0.573211
0.0572531 0.328619 -0.102888 0.69411 0.574961 -0.433165
0.0458918 0.452162 0.056293 0.508518 0.154674 0.847045
0.0900885 -0.414593 0.0488914 0.898159 0.164811 -0.407613
0.0387947 -0.443347 -0.0919838 -0.451579 -0.167742 0.876321
0.0645026 0.197886 0.0787722 0.745874 -0.0726951 0.662109
0.106293 0.0558232 -0.0292677 0.98739 0.0882928 -0.131401
0.0429068 -0.150327 0.0867525 0.431808 0.0288453 0.901504
-0.0275004 0.139648 -0.076084 -0.448079 0.0852735 -0.889918
0.0947793 0.298159 0.0477644 0.983332 0.159154 0.0879156
-0.0151338 -0.192117 -0.118118 -0.459956 0.123533 -0.879307
0.0602991 -0.336373 -0.135175 0.0696515 0.107309 -0.991783
-0.0521878 -0.471857 0.0760308 -0.362602 0.83894 -0.405832
0.0935609 0.128439 -0.0539704 0.943127 0.0253323 -0.331465
0.0539635 -0.369757 0.0872399 -0.385499 0.285674 0.877371
0.058502 -0.194919 -0.114646 0.591935 0.291277 -0.751513
0.0518618 0.19545 -0.095639 0.603196 -0.296594 -0.740396
0.0193768 -0.438961 0.0630551 -0.778663 0.626899 0.0261109
0.0125919 0.12783 -0.171483 0.375743 -0.746526 0.549104
-0.0197637 0.236022 -0.102401 -0.945843 -0.189083 -0.263872
-0.0622699 0.0793988 -0.234839 -0.318086 -0.372304 0.871901
0.0317586 0.0706875 -0.106056 0.352604 0.16946 -0.920301
0.00224426 0.102731 -0.100878 -0.366738 0.163979 -0.915759
-0.064463 0.145009 0.00327066 -0.993269 0.0514286 0.103789
-0.0473752 0.260389 -0.00765669 -0.949642 0.300944 0.0872513
0.0310123 -0.153982 0.0950985 0.283707 -0.0315709 0.958391
0.0553647 -0.376336 0.018074 -0.0750787 0.4358 -0.896907
-0.0768296 0.0666668 0.284678 -0.866305 0.285948 0.409571
0.034835 -0.441154 -0.146141 -0.229684 0.433103 -0.871589
0.0108633 0.115828 0.0955858 -0.249504 0.0190015 0.968187
-0.00727526 0.390025 0.0457236 -0.450573 -0.0867436 0.888515
0.0418102 0.0240539 0.0989363 0.508644 -0.155893 0.846746
-0.0385115 -0.0605626 0.0475207 -0.944737 -0.203677 -0.25688
-0.0488982 0.0282574 -0.0397762 -0.854976 -0.518131 -0.0235845
-0.0745756 0.0563715 0.00672282 -0.986716 -0.161763 0.0149864
-0.0436896 -0.0292502 0.0523028 -0.995605 -0.0668816 0.0655627
0.079184 -0.315661 -0.118605 0.704432 0.136337 -0.696554
-0.0183778 0.353961 -0.021927 -0.737747 0.240046 -0.630957
-0.00734384 0.212507 0.170516 -0.943897 0.133097 0.302231
0.00204818 -0.287394 -0.0900344 -0.425107 0.206867 0.881187
0.10343 0.20276 -0.00601949 0.999879 0.00139635 0.0154971
-0.0235102 -0.0405507 -0.0264959 -0.718159 -0.618382 0.319142
0.0899667 -0.412157 -0.118971 0.880145 0.0197832 -0.474293
-0.0302722 0.292311 -0.0624381 -0.849936 0.462615 -0.252184
0.0757725 0.3062 0.096195 0.928363 0.151843 0.339243
0.0383683 0.200567 -0.199262 0.855068 0.0855202 -0.511415
0.0183259 -0.37195 0.0284074 -0.313471 0.106879 -0.943564
0.0499124 -0.162267 -0.101365 0.911285 0.202044 -0.3588
-0.0754893 0.0413245 -0.272609 0.460099 -0.887858 -0.00421545
-0.0218501 -0.156906 0.0489523 -0.857479 -0.136268 -0.496146
-0.0428063 -0.0422868 -0.094847 -0.738045 -0.0445695 -0.673278
0.00478289 0.123017 -0.0945424 -0.486346 0.223137 -0.844794
-0.00984152 -0.465765 0.09918 -0.132004 0.532352 0.836168
0.00747856 -0.349776 -0.0816276 -0.683273 -0.236646 0.69075
-0.00931609 0.379303 0.0394185 -0.632724 -0.0939044 0.768663
-0.0541068 0.213482 0.031895 -0.976598 0.126675 0.17381
0.0778438 -0.0168989 -0.00343043 0.429749 -0.902084 0.0394853
-0.00407326 0.472387 -0.0231301 -0.267878 0.476725 -0.837242
0.0574969 -0.0914789 -0.0458986 0.984474 0.0620419 0.164203
0.102333 0.214578 0.0269453 0.992947 0.10473 0.0555744
0.0214632 0.230417 0.213525 -0.0963829 0.607215 0.78867
0.0786357 -0.304452 -0.118484 0.71737 0.16784 -0.676173
-0.0328156 0.19216 -0.0699311 -0.632603 0.032624 -0.773789
0.0454958 0.401478 -0.0111138 0.685178 -0.314957 -0.65676
0.0295046 0.352742 -0.0727334 -0.250073 0.93239 -0.260984
0.0112974 -0.325408 -0.0748656 -0.492121 -0.105566 0.864103
0.00651523 0.165234 -0.0824805 -0.198189 -0.12289 -0.972429
0.0352614 -0.0611108 -0.0167032 0.4588 -0.30851 0.833261
0.0318499 -0.373899 0.0292298 -0.313662 0.326172 -0.891756
0.0988609 0.258927 0.0488609 0.97499 0.0574858 0.214685
0.0738841 0.25381 0.127629 0.98785 -0.153678 -0.0231609
0.0727875 0.448507 0.0111406 0.955302 0.294448 -0.02643
0.0219049 0.193987 0.115384 -0.273895 -0.936634 0.218399
0.0947184 0.285244 0.012755 0.991475 0.0341471 0.125743
-0.0166568 0.214335 -0.158203 -0.980916 0.181585 -0.0695013
0.0475061 -0.229156 0.0867525 0.462022 -0.0756614 0.883635
0.0401958 -0.068147 0.0985099 0.370992 -0.0241204 0.928323
0.0367844 0.291092 0.163571 -0.0297053 0.551025 0.83396
0.0704726 -0.175304 0.0706699 0.922516 -0.0149176 0.38567
0.0406832 -0.0494144 0.0902249 0.438475 0.335989 0.833577
0.0597813 0.193744 0.168932 0.979816 -0.197004 0.0338977
0.0507348 -0.172989 -0.0502238 0.701282 -0.084378 0.707872
0.0478412 -0.382672 -0.0688955 0.0304013 -0.405697 0.913502
0.0233061 -0.446271 0.0512977 -0.49165 0.437056 -0.753168
0.0528975 0.34397 0.100094 0.410335 0.734337 0.540717
0.0692542 -0.0199144 -0.0115707 0.33712 -0.928026 0.158487
0.0244635 0.141719 0.178679 0.205749 -0.462714 -0.862301
0.0998356 -0.445297 0.069878 0.968899 0.0683831 0.237822
0.0545118 0.260877 0.176974 0.633196 0.430206 0.643417
0.043059 0.453624 0.0572677 0.453258 0.232337 0.860568
-0.00078549 0.373942 -0.0148756 -0.499115 0.0717398 -0.863561
0.107877 0.0309682 -0.0345677 0.970037 -0.113155 -0.214996
-0.00532591 0.0825058 0.246543 0.295945 -0.95488 -0.0249041
0.0421757 -0.00990839 0.0885192 0.510853 -0.0139984 0.859554
-0.0278811 -0.174572 0.0585775 -0.947382 -0.186031 -0.2605
-0.0599245 0.123565 0.0234425 -0.950127 0.0189507 0.311287
0.0988609 -0.488184 0.0482822 0.91487 -0.167337 -0.367439
-0.015545 -0.107135 -0.0448934 -0.70487 -0.163935 0.690133
-0.0737227 0.0579249 0.0140152 -0.969736 -0.0210722 0.243245
-0.0443598 -0.0073003 -0.0233281 -0.932782 -0.353404 0.0708732
0.0548773 -0.194554 0.0934536 0.373987 -0.00676119 0.927409
0.0410487 -0.180664 0.012736 0.286827 -0.0575612 -0.956251
0.0696806 -0.231105 -0.0668852 0.75621 0.179323 0.629278
0.0853978 -0.385596 -0.127865 0.697448 0.379976 -0.607606
-0.0835307 0.0813483 -0.283574 -0.701681 0.414214 -0.579716
-0.0403086 -0.0387231 -0.0537876 -0.837313 -0.277026 0.471343
0.0352919 0.126733 0.226927 0.93759 -0.347245 0.018586
0.0408659 0.39636 0.0346973 0.677181 -0.333974 0.655658
0.0121045 0.301083 0.144808 -0.509095 0.566558 0.647946
-0.0176315 0.182535 0.0839503 -0.660607 0.0347027 0.74993
0.0574359 -0.117187 -0.0497365 0.971302 -0.0589092 0.230438
0.0558825 -0.178715 -0.081323 0.961056 0.275661 -0.0195342
-0.0398518 0.140135 0.0655223 -0.787568 -0.0643798 0.612855
-0.0118975 0.0814701 -0.0977102 -0.386692 0.239601 -0.890539
0.00663329 0.2465 0.184649 -0.775393 0.433166 0.459493
-0.0617521 0.164259 -0.0379182 -0.942768 0.119475 -0.311311
0.0587457 -0.0516379 -0.0424871 0.880316 -0.310157 0.358951
0.0892966 0.227493 -0.0533307 0.799982 -0.0149001 -0.599839
-0.00929326 0.13185 -0.18123 -0.525839 -0.479914 0.702265
0.068645 0.266968 -0.111722 0.973739 -0.175725 -0.144754
0.0301442 -0.219409 0.0971088 0.109304 -0.0885312 0.990058
0.0651726 0.260146 -0.123235 0.982893 -0.068441 -0.170991
0.00292291 0.0263841 0.104175 -0.24505 -0.139679 0.959396
0.0994091 0.115158 -0.0343849 0.968195 0.100145 -0.229281
-0.000188728 0.16962 -0.149309 -0.153607 -0.461736 0.873616
0.0441555 -0.328576 0.0837675 -0.520199 -0.420656 0.743264
0.0324896 0.275253 -0.165391 0.00853186 0.658057 -0.75292
0.00605077 0.19484 0.21913 -0.810529 0.407477 0.42072
-0.0346736 -0.0262499 0.001702 -0.835255 -0.521721 -0.173656
0.00493894 -0.482823 -0.13481 -0.00664267 -0.997799 0.0659826
0.0595681 -0.115116 0.0519373 0.986782 0.087605 0.136333
-0.0409178 0.0664231 0.246299 -0.517224 -0.506628 -0.689788
0.0836311 -0.412644 -0.119702 0.838932 -0.0390846 -0.542832
0.0261845 0.125758 0.195493 0.71131 -0.522468 -0.470177
0.105014 0.127098 -0.00207498 0.995684 0.0384857 -0.0844539
0.0392211 0.164625 0.163693 0.395844 -0.640326 -0.658248
0.101907 0.0190434 0.0105962 0.938631 -0.334582 0.083826
0.0961804 0.265019 0.0136954 0.98807 0.0467951 0.146723
0.0788185 -0.478924 0.0421903 -0.0308658 -0.331328 -0.943011
0.0984344 0.172179 -0.0476348 0.839995 0.0984858 -0.533581
0.0822299 -0.437986 0.0434696 0.546717 -0.0224492 -0.837017
-0.0101918 -0.127177 0.0860824 -0.500351 -0.179607 0.846989
0.0162547 0.194719 0.124949 -0.495871 -0.868297 0.0131097
-0.0177076 0.177418 -0.242027 -0.275632 0.496376 -0.823188
0.0558825 0.126246 -0.0840034 0.555854 0.0832867 -0.827097
0.000335195 -0.485016 0.0870571 -0.0321299 -0.981806 0.187149
0.0171075 0.255028 -0.177453 -0.351881 0.649617 -0.673927
0.0247224 -0.21819 -0.114463 0.0574456 -0.0734193 -0.995645
0.0674267 0.349331 0.0611666 0.651203 0.725054 0.224126
0.00827048 0.273304 -0.146384 -0.528616 0.451403 -0.718888
0.0147545 -0.339541 0.0449926 -0.282743 0.59425 0.752943
0.0746151 0.162797 -0.0640829 0.622257 0.094376 -0.777103
0.0415665 0.18156 -0.177088 0.967997 -0.188964 -0.165148
0.021509 -0.0418909 0.0980226 0.248045 0.0927766 0.964296
-0.0294803 0.10663 0.291258 0.293749 0.343947 0.891859
0.0828392 -0.325652 0.0716446 0.807489 0.0474534 0.587971
0.0511003 -0.24134 0.022483 0.245669 0.126388 -0.961079
0.00920329 0.144156 0.0955858 -0.225372 -0.0159877 0.974142
0.0841794 0.33203 0.0488914 0.875487 0.469104 0.116033
-0.00595791 -0.241827 0.0726803 -0.753942 -0.482518 0.445811
0.0313169 -0.413375 -0.101365 -0.854312 0.0802849 0.513522
-0.0318409 0.167914 -0.178062 -0.937605 0.161773 0.307777
0.0493337 0.41951 -0.0230997 0.474385 -0.32123 -0.819616
0.10544 0.183022 0.0203584 0.997783 0.0648594 0.0149406
-0.02383 -0.215997 -0.103376 -0.881055 -0.384036 -0.276149
-0.0217588 -0.03222 0.0913215 -0.524193 0.0049881 0.851585
0.0479326 0.0532342 -0.095578 0.517952 0.173493 -0.837631
-0.0143267 0.134896 -0.26408 0.248093 0.269395 -0.930525
-0.050208 0.0849425 0.258605 -0.571151 -0.214854 -0.792227
-0.00614447 0.311318 -0.0929585 -0.835467 0.457687 -0.304168
0.0524101 -0.356842 -0.0676771 0.137412 -0.0709789 0.987968
0.00952313 -0.373656 0.0413679 -0.953753 -0.291096 -0.0749599
0.052136 0.155609 -0.0818103 0.643029 -0.0722637 -0.762425
0.101298 0.223594 0.0282094 0.997588 0.0656137 0.022667
0.0121122 0.495293 0.00178195 0.0246871 0.952403 -0.303839
0.0327333 -0.0692435 -0.0934459 0.792616 -0.157014 -0.589157
0.086738 -0.40509 -0.0900344 0.593469 0.0785787 0.801012
-0.016276 -0.157637 0.0408805 -0.783062 -0.159146 -0.601238
0.0480544 0.467514 -0.0229626 0.517679 0.392699 -0.760129
0.0674875 -0.386814 0.0802342 0.295588 -0.22994 0.92723
0.0956931 0.274279 0.0581206 0.952526 0.0857319 0.292138
0.0665738 -0.0448455 0.0610752 0.921567 -0.259085 0.289118
0.049486 -0.479168 0.0950375 0.196237 -0.304854 0.931963
0.0899667 0.0610927 0.0630246 0.73538 0.0490588 0.675877
0.0313169 0.193744 0.237162 0.208388 0.379952 0.901228
0.0871035 0.0681289 -0.0701139 0.76964 0.0430723 -0.637024
0.0618526 0.46727 -0.000643386 0.857787 0.450628 -0.247256
-0.0525838 0.0487262 -0.0706622 -0.836741 -0.201753 -0.509077
-0.033242 0.00922015 -0.0981976 -0.60235 0.268645 -0.751668
-0.00478906 0.188139 -0.139562 -0.121755 -0.534596 0.836291
-0.0134814 0.154999 -0.0799219 -0.282567 0.0845773 -0.955512
0.0660255 -0.374387 -0.137978 0.114327 0.15236 -0.98169
0.0758335 -0.410938 0.0282094 0.51406 0.0148984 -0.857625
-0.0145932 0.0546049 0.0900422 -0.542937 0.137978 0.828361
0.0218593 0.125515 0.0979007 -0.202264 0.0326839 0.978786
0.0411097 -0.434818 0.0902858 -0.384962 0.23343 0.892925
-0.0176772 0.330812 -0.00401678 -0.971134 -0.0575974 -0.231475
0.055121 0.0394055 0.0878491 0.512365 0.0892154 0.854121
0.103491 0.0299326 -0.0500411 0.892428 -0.201091 -0.4039
0.00273255 -0.0584913 -0.0123627 -0.546524 -0.799822 0.248187
-0.0417098 -0.0183305 -0.0437664 -0.871426 -0.313534 0.377243
-0.0184844 0.458254 -0.0200842 -0.488465 0.205128 -0.84813
-0.00139282 0.302058 -0.118362 -0.776659 0.472112 -0.417027
-0.0720779 0.0961516 0.277612 -0.822635 0.563548 0.0754033
-0.0135043 0.20873 -0.1275 -0.721518 -0.566802 0.397677
0.0502475 0.333005 -0.110564 0.510855 0.654598 -0.557251
-0.0539849 0.22201 0.0244933 -0.983402 0.150845 0.100829
-0.00776263 -0.217825 0.0396926 -0.586972 0.0770898 -0.805929
-0.0231447 -0.0746653 0.0854732 -0.571997 -0.130216 0.809854
-0.0501775 0.210557 0.047673 -0.934533 0.0707625 0.348769
0.054786 -0.401679 0.0169774 0.0991643 -0.440616 -0.892202
0.0252098 -0.266926 -0.0721852 -0.552278 -0.275289 0.786896
0.0450389 -0.354649 0.0684159 -0.648899 0.0972927 0.754629
0.0267784 -0.305183 -0.126159 -0.555485 -0.0387321 -0.830624
0.0041356 0.191185 0.227658 -0.771748 0.386219 0.505213
0.0409269 -0.132904 -0.10697 0.866426 0.0860553 -0.491834
0.0768691 -0.272043 0.0341185 0.80849 0.133442 -0.573182
0.00591368 0.323501 0.116481 -0.697133 0.58234 0.418194
-0.0263429 0.171813 -0.243611 -0.310539 0.543745 -0.779684
0.0187676 0.401478 -0.0220793 0.0544302 -0.0324514 -0.99799
0.0823518 -0.375118 0.0740205 0.56833 -0.0492608 0.821325
-0.00844799 -0.238172 0.0729848 -0.800151 -0.441765 0.405712
0.0839966 -0.338323 0.070609 0.785805 0.248485 0.566362
-0.0591021 0.170716 -0.0460509 -0.884664 0.094602 -0.45653
-0.0111437 -0.0713148 0.00991083 -0.621423 -0.416199 -0.663785
0.0316672 0.15573 -0.156253 0.527231 -0.60632 0.595318
0.105562 0.163528 0.0143008 0.993364 0.0206109 -0.113151
-0.0248352 0.179976 -0.234839 -0.614139 0.663765 -0.426907
0.0428154 -0.447246 -0.0916792 -0.270778 -0.227282 0.935426
0.00154467 -0.270825 0.0523028 -0.840636 -0.475668 0.25898
-0.0125372 0.450944 0.0497747 -0.394347 0.106509 0.912768
0.0479326 0.366388 0.0499575 0.573567 0.645869 0.50386
-0.0205708 -0.0180258 -0.114097 -0.371004 0.124337 -0.92027
-0.0597113 0.0801908 0.0329458 -0.850413 0.16827 0.498481
-0.041527 0.0625243 0.249711 -0.308148 -0.376812 -0.873532
-0.0468575 0.165965 0.0605878 -0.838363 0.0641624 0.541323
0.0417188 -0.371219 0.0310726 -0.16943 0.463371 -0.869817
0.0522578 -0.278866 -0.0628036 -0.0948716 0.0232352 0.995218
0.00482095 0.155487 -0.157106 -0.197761 -0.473526 0.858291
0.0362056 -0.468689 0.0996065 0.266175 -0.208127 0.941188
0.0921597 0.0330395 0.0614712 0.739406 -0.201072 0.642533
-0.0290843 0.1723 -0.175991 -0.916766 0.219118 0.333956
0.0978861 0.290605 -0.00288978 0.973861 0.155022 0.166019
-0.0183625 -0.226232 0.0735331 -0.844068 -0.286352 0.453377
-0.0339731 -0.0526126 -0.103132 -0.588548 0.028117 -0.807974
-0.00544009 -0.264733 -0.102584 -0.481395 0.216938 0.849233
0.00515221 -0.0587655 -0.00928627 -0.544367 -0.803958 0.239409
-0.0129027 -0.0541965 -0.11093 -0.386198 -0.113461 -0.915411
0.0202906 0.190698 0.128299 -0.232302 -0.965463 -0.117967
-0.0145932 -0.191021 -0.073769 -0.746044 -0.21762 0.629332
-0.0234036 -0.0795997 0.0852905 -0.5726 -0.110364 0.812373
-0.0273786 0.168767 0.0848031 -0.638191 0.0964585 0.763811
-0.00753421 -0.237685 -0.11495 -0.441595 -0.192744 -0.876267
0.0742496 0.275253 0.120258 0.991133 -0.00410748 0.13281
0.0924035 -0.422878 -0.0927149 0.899559 0.0248818 0.43609
0.0743714 0.339828 0.0693297 0.800809 0.532795 0.273559
0.0439729 -0.0271942 -0.0129871 0.722144 -0.6792 -0.131133
0.0284841 0.399041 0.0469724 0.380292 -0.146472 0.913194
0.0227273 -0.255717 -0.122992 -0.502287 -0.00145631 -0.8647
-0.0132911 0.237484 0.106429 -0.994208 0.0926565 -0.0544547
-0.0405523 -0.0492925 0.07664 -0.888786 -0.0138823 0.458113
-0.0684228 0.132947 -0.0135658 -0.997803 0.0506822 -0.0426628
0.0781484 0.0938367 -0.0779115 0.597868 0.0639336 -0.799041
0.00279351 0.319115 0.117151 -0.828568 0.473692 0.298482
-0.0139078 0.228224 0.111729 -0.987633 -0.139803 0.0709632
0.0346827 -0.342953 -0.122748 -0.657608 -0.0641508 -0.750624
-0.0327242 0.453868 -0.0149974 -0.674144 0.203297 -0.71007
0.0159349 -0.294217 -0.0814448 -0.66696 0.291959 0.68551
0.0808288 -0.290562 -0.111539 0.818216 0.133577 -0.559178
-0.0147074 -0.193579 0.0471552 -0.718559 -0.092985 -0.689222
0.104587 0.0931057 0.0151194 0.999508 0.0307726 0.00603214
0.0661474 -0.0859962 0.0389616 0.996833 -0.0619244 -0.0498933
-0.0217283 0.016104 0.0851077 -0.701608 -0.0600829 0.710025
0.0473538 -0.290319 -0.13018 0.00533535 0.070544 -0.997494
-0.0179818 0.319846 0.00172865 -0.979253 0.198946 -0.0385188
-0.00607977 0.147933 -0.252384 0.387634 0.407153 -0.827023
0.0590808 0.0345625 0.0841939 0.568254 -0.0579078 0.820813
-0.0423494 0.380278 0.00468512 -0.642297 -0.724879 -0.249008
0.0657209 -0.194067 -0.0897298 0.900291 0.417326 0.123756
0.0322459 0.10596 -0.099355 0.303378 -0.000488282 -0.95287
0.0800978 -0.451632 0.0894939 0.500907 -0.00511857 0.865486
-0.00891252 0.15902 0.197199 -0.977927 0.192834 -0.0804651
0.0833265 0.223716 0.0662533 0.630061 -0.10017 0.770058
0.0523796 0.20142 0.216693 0.829926 0.291337 0.475758
-0.00796061 0.206537 -0.117874 -0.454086 -0.863869 0.21803
0.0655991 -0.390713 -0.132982 0.484475 0.0832272 -0.870837
0.102211 0.115037 -0.0231758 0.976657 0.0934121 -0.193428
0.0903322 -0.337592 0.0392966 0.898796 0.000898455 -0.438367
-0.0019525 -0.353431 -0.0989286 -0.855383 -0.447574 0.260763
-0.0458827 0.109858 0.282973 -0.334973 0.795698 0.504636
0.0625227 0.449238 0.0406064 0.836985 0.124024 0.532986
0.0954494 -0.459186 0.0734722 0.880716 0.0574544 0.470147
0.0935609 0.00662351 -0.0477566 0.88242 -0.331485 -0.333846
-0.00776263 0.271111 0.127934 -0.91881 0.29061 0.267085
0.0685232 -0.313711 -0.0772414 0.498366 -0.11991 0.858634
0.00019109 0.189601 -0.234473 0.12965 0.552938 -0.823073
0.104405 0.0981619 0.0148529 0.99924 0.0128174 0.0368235
-0.0346736 -0.0626643 -0.0535439 -0.727811 -0.21298 0.651867
-0.0045225 0.174493 0.191229 -0.943788 0.247932 0.218616
0.0518618 -0.151423 -0.0431268 0.698767 -0.11158 0.706593
0.0794277 -0.393637 0.0775538 0.43342 -0.220948 0.873687
0.0179147 0.133921 0.181969 0.0924652 -0.706733 -0.701412
-0.0353132 -0.0174776 0.0800515 -0.76917 0.0632859 0.635903
0.0508262 0.384177 -0.00661345 0.915789 0.245901 -0.317589
-0.0267694 0.0909735 -0.0837598 -0.591797 0.251707 -0.76578
0.044247 0.0205816 0.0980835 0.521828 -0.201434 0.828927
0.0606037 -0.185782 0.0875445 0.677463 0.0171372 0.735357
0.0107035 0.182169 0.244837 -0.0578645 0.620046 0.782429
0.0507653 0.221401 -0.0919838 0.865201 -0.258337 -0.429755
0.0406223 0.0198505 -0.0964309 0.476357 -0.281316 -0.833034
0.0188437 -0.342222 -0.0714541 -0.527989 -0.0976292 0.843621
0.00712446 0.246987 0.184649 -0.721199 0.478982 0.500448
-0.00641103 -0.0655275 -0.112331 -0.348858 -0.143136 -0.92618
0.105136 0.170595 0.0136726 0.995562 0.0270696 -0.0901306
0.0661474 -0.493057 0.0784676 -0.414227 -0.904557 0.100954
0.0156988 -0.319803 -0.104716 -0.757442 -0.195357 -0.62299
-0.0243174 -0.481361 -0.159909 -0.121362 -0.883144 -0.453132
0.0196966 0.00118266 0.0983881 0.253393 -0.109865 0.961105
-0.0488373 0.0878057 -0.0646312 -0.711275 0.24148 -0.660132
-0.084018 0.090547 -0.262862 -0.942806 0.28846 0.167053
0.0157673 0.16828 -0.0858919 -0.248649 -0.110407 -0.962281
-0.0324806 -0.128518 0.0741423 -0.803887 -0.00822746 0.594725
-0.0109457 0.278421 -0.131764 -0.53769 0.46322 -0.704497
0.055517 0.174737 0.183065 0.851557 -0.514065 -0.102895
-0.00417222 -0.167019 -0.119458 -0.272583 0.0338654 -0.961536
0.0565526 -0.20223 -0.0682863 0.94755 0.0587369 0.314163
0.0140007 0.181682 -0.14809 -0.202348 -0.559094 0.804033
-0.0640366 0.0629507 0.0325955 -0.829217 0.189637 0.525773
0.0654772 -0.261321 -0.0678599 0.617637 -0.0530908 0.784669
0.0722393 0.301327 -0.0923493 0.905302 0.173607 -0.387671
-0.0413747 0.108153 0.283947 -0.0655274 0.772361 0.631795
-0.0485936 0.0309682 -0.0230692 -0.820509 -0.568671 0.0581279
0.0752852 -0.241096 -0.0785207 0.930367 -0.0507767 0.363096
0.0311037 -0.143869 -0.0296941 0.121143 -0.241832 0.962726
-0.0378414 -0.109145 -0.0833333 -0.975214 -0.221157 0.00691663
-0.00927803 -0.181395 0.0396622 -0.697913 -0.198685 -0.688071
0.0125082 -0.282034 0.0659487 -0.770983 0.0845277 0.631221
0.0711427 0.189114 0.0726803 0.606161 -0.0118827 0.795254
0.04312 0.487983 -0.00283647 0.539442 0.816982 -0.203821
0.0448561 0.486521 0.0256203 0.594664 0.761784 0.25702
0.0527756 0.212263 -0.131398 0.891014 -0.408488 0.198068
0.0136885 -0.0845342 -0.114524 -0.074186 -0.0489961 -0.99604
0.0402263 0.435349 0.0576637 0.342256 -0.148769 0.927755
-0.0459436 0.0758046 0.299786 -0.127803 -0.141075 0.981715
-0.00134518 -0.0586436 -0.0177236 -0.576347 -0.731457 0.36441
-0.013253 -0.258153 -0.1063 -0.842303 -0.032824 0.538005
0.0704116 0.17693 -0.0739518 0.679035 -0.0971495 -0.727649
0.00856368 0.302058 0.136889 -0.788484 0.293759 0.54037
-0.0367448 -0.063639 0.0783457 -0.782745 -0.148458 0.604375
-0.0389379 -0.0757618 0.0728021 -0.893887 -0.340947 0.29107
0.0526234 -0.237197 0.0843158 0.384964 -0.0994391 0.917559
-0.0473448 0.251373 0.000712061 -0.964134 0.244629 0.102964
-0.00519263 -0.104394 0.0951594 -0.400484 -0.0852627 0.912328
-0.0782916 0.1073 -0.271147 -0.773576 0.631751 -0.0497044
-0.0268303 0.370775 0.0166728 -0.762677 -0.59739 0.247887
0.018067 0.349575 -0.0432791 -0.569476 0.684394 -0.455305
-0.00682221 0.492612 0.0288643 -0.326174 0.798988 0.505201
-0.0138622 0.319359 -0.0488227 -0.783723 0.608893 -0.122584
0.0115334 -0.13132 -0.0323137 -0.386145 -0.191219 0.902401
0.0491509 -0.195407 0.0155078 0.520286 0.0515269 -0.852436
0.0522273 -0.0386012 -0.0927149 0.729065 -0.0794937 -0.679812
-0.0325719 0.0944459 -0.225457 -0.157868 -0.863408 0.47917
0.0260017 0.393436 -0.020206 0.362729 0.208945 -0.908168
-0.0495683 -0.0311844 -0.0649358 -0.956292 -0.180658 0.229931
0.0562176 0.401965 0.00337156 0.888293 -0.292525 -0.354069
-0.0693365 0.113879 -0.279919 -0.387659 0.697104 -0.603131
0.00645053 -0.482579 -0.126403 -0.0123261 -0.95767 0.287604
0.053994 0.275984 0.166252 0.445705 0.53927 0.714517
0.0388556 0.40294 -0.0166575 0.436003 -0.285881 -0.853331
0.0788185 -0.3103 -0.118727 0.691265 0.193959 -0.696083
0.0226512 0.0438526 -0.113062 0.258794 -0.0307077 -0.965444
-0.0256576 -0.19565 -0.112757 -0.711653 -0.0433303 -0.701194
-0.00181732 0.257221 -0.147359 -0.495572 0.483592 -0.72149
-0.0495378 0.242114 0.00593396 -0.970566 0.227841 0.0780352
0.0173665 0.105655 0.204753 0.391797 -0.644125 -0.656962
0.00624494 -0.0366823 -0.118484 0.0821688 0.122669 -0.98904
0.0987999 0.132825 -0.0295723 0.98156 0.0342752 -0.188059
0.0459222 0.249667 -0.175504 0.637251 0.410421 -0.652277
-0.0100776 -0.144722 -0.118057 -0.382928 0.0195 -0.923572
0.0500343 0.386126 0.0291536 0.929185 0.100146 0.355788
0.0086398 -0.21417 0.0310117 -0.56001 -0.0264671 -0.828063
0.0118228 -0.280328 0.0241126 -0.608132 -0.0766729 -0.790125
0.0757116 -0.354162 0.0898594 0.182167 0.176502 0.967296
0.0875908 -0.0268896 0.036007 0.734213 -0.671399 0.100764
-0.0854192 0.0539652 0.265915 -0.903618 0.0457707 -0.425886
0.0201383 0.183388 -0.13749 -0.140733 -0.579741 0.802555
-0.0176772 -0.485747 0.0761526 0.060474 -0.939501 -0.337165
0.0172903 -0.379017 -0.0972838 -0.788861 -0.586919 0.182276
0.062614 0.454112 -0.0139161 0.789385 0.279787 -0.546434
0.0454958 0.275497 -0.15406 0.678736 0.472895 -0.561861
0.0221486 0.135018 -0.101061 -0.000313809 0.139611 -0.990206
-0.023495 0.477017 -0.0107026 -0.582779 0.537951 -0.609079
-0.0478626 -0.473319 -0.140171 -0.95264 -0.124008 0.277668
0.0665738 -0.151911 0.0338139 0.885557 -0.0282487 -0.463671
-0.0966282 0.0421469 -0.270416 -0.577184 -0.816583 0.00709994
-0.00649476 -0.199427 -0.070784 -0.637965 -0.289717 0.713488
-0.0326024 0.140501 -0.204867 -0.940949 -0.0185021 0.338043
0.0477498 0.326182 -0.12092 0.394135 0.671521 -0.627468
0.0636497 -0.371463 -0.137369 0.0675259 0.109372 -0.991705
0.0590198 0.34592 0.090164 0.543392 0.720288 0.431173
-0.04305 0.265994 0.015523 -0.947327 0.307963 0.0879218
-0.0199617 0.214091 -0.0947861 -0.730096 -0.470718 -0.495363
-0.0194286 -0.457968 0.0806606 -0.282934 0.957926 -0.0482277
0.0509785 -0.344171 0.025072 -0.101314 -0.274126 -0.956342
-0.0574573 0.154878 -0.0500411 -0.840141 0.0600799 -0.539031
0.0487245 -0.372194 -0.129205 -0.23159 0.0595348 -0.97099
0.0511918 -0.342709 -0.135054 -0.305983 0.0150746 -0.951917
0.0470797 0.0497922 0.0910169 0.540863 0.028643 0.840623
-0.00516599 -0.138021 0.0874227 -0.506622 -0.150337 0.84896
0.033647 0.058991 0.101495 0.264124 0.0656481 0.962252
-0.0179666 -0.0954996 0.0871181 -0.502548 -0.056947 0.862672
-0.0567872 0.221036 -0.0395021 -0.95933 0.0868866 -0.268582
0.0239914 -0.433113 0.0726193 -0.851362 0.379806 0.361842
0.0713864 0.241992 0.122451 0.959452 -0.272153 -0.073378
0.0449171 -0.44554 -0.148212 0.0748456 0.270094 -0.959921
0.0366321 0.493587 0.0121648 0.373806 0.92744 0.0111366
0.0558825 0.222254 -0.15004 0.97157 -0.192538 -0.137773
0.0380027 0.192891 -0.0958217 0.466193 -0.319706 -0.824895
-0.0142733 0.188261 -0.235326 -0.337202 0.701687 -0.627639
0.0482676 0.191673 0.227293 0.749221 0.164663 0.641525
0.0774173 0.34592 -0.0269832 0.725881 0.680236 -0.101862
-0.0545637 0.137333 0.0466374 -0.897749 -0.0335508 0.439227
0.0621267 -0.0468862 0.0801124 0.660973 0.240911 0.710688
0.0890529 0.319603 0.0328697 0.964162 0.265288 -0.00363355
-0.0102299 -0.261321 -0.105812 -0.676343 -0.0960237 0.730301
0.0546032 -0.0844124 0.073655 0.965756 -0.108183 0.235822
0.101541 0.0705656 -0.0487923 0.943275 0.0687127 -0.324824
0.01959 0.0112381 -0.106483 0.281119 -0.0475474 -0.958494
0.0842403 -0.297142 0.0426472 0.928095 -0.0247238 -0.371521
0.0700461 0.165112 -0.0733426 0.647307 -0.0344579 -0.76145
0.00143567 0.083785 0.241182 0.52448 -0.851395 -0.00693705
-0.00898103 -0.082402 -0.108919 -0.23428 -0.0406905 -0.971317
-0.00291576 0.0795816 0.232166 0.222992 -0.950293 -0.217297
-0.0278964 -0.188097 -0.110016 -0.974744 -0.119875 -0.188426
0.00170642 -0.0889813 0.0971088 -0.329642 -0.067454 0.941693
0.0148916 -0.23074 -0.119215 0.00477745 -0.0303555 -0.999528
0.0317281 -0.119197 -0.0271965 0.10671 -0.208636 0.972154
-0.0612343 0.132094 -0.239834 -0.861015 0.285136 0.42113
-0.0921202 0.0448273 -0.276264 -0.319882 -0.896727 -0.30587
-0.0452735 0.149638 -0.237276 -0.77679 0.629695 -0.00902789
0.0529279 -0.366833 0.0844376 -0.385499 0.285674 0.877371
0.0512526 -0.0888594 0.0854732 0.900891 -0.0541453 0.430655
0.0811334 -0.37926 0.0307223 0.712122 -0.0173361 -0.701842
0.019986 0.177296 0.158454 -0.10143 -0.77061 -0.629184
0.0676094 -0.352212 0.0848641 -0.122159 -0.0263122 0.992162
0.0202296 -0.0707056 0.1018 0.0409714 -0.117127 0.992271
0.0188742 -0.110486 0.0996674 -0.0115054 -0.0390885 0.99917
-0.0434459 0.155609 -0.250922 -0.6893 0.537042 -0.486262
0.00691119 0.148907 0.261286 0.23092 0.391581 0.890697
0.0351395 -0.414837 -0.144801 -0.565179 -0.193893 -0.801859
0.0487245 0.204344 -0.123844 0.895956 -0.426231 0.124865
0.0553647 -0.186025 -0.0991723 0.886063 0.441879 -0.140123
-0.0234645 0.177296 -0.209497 -0.827582 0.560408 0.0324269
-0.0659251 0.0376389 -0.0389843 -0.832924 -0.537588 -0.131289
-0.0774388 0.0457716 0.0106723 -0.881933 -0.449056 0.143331
0.0285147 0.476774 -0.0248815 0.107687 0.548881 -0.828935
0.103003 0.195815 0.0121801 0.996834 0.0743048 -0.0283067
0.0583192 0.229442 -0.122504 0.968654 -0.235025 0.0804594
0.0332511 0.133556 0.200854 0.813606 -0.453766 -0.363512
0.110862 0.0341361 -0.0102305 0.994238 -0.104084 0.025641
-0.0111208 0.0744644 0.0881537 -0.510312 0.1049 0.853568
0.0896012 0.0229574 -0.0684691 0.745008 -0.246883 -0.619687
-0.0359225 0.382227 -0.00141249 -0.400488 -0.745347 -0.532979
0.0116705 0.0783633 -0.10435 -0.13015 0.176175 -0.975717
0.0767473 0.309368 0.0941847 0.923211 0.154432 0.351897
0.0809507 -0.330038 -0.0871712 0.822128 0.256666 0.508162
-0.0566044 0.0889022 0.299299 -0.514765 0.156935 0.842846
0.0698025 -0.327845 0.0835238 0.528321 0.00592653 0.849024
-0.00594269 0.481647 0.0429518 -0.340683 0.594046 0.728728
0.038551 -0.432869 0.0851077 -0.490402 0.291483 0.821306
-0.048685 0.168645 -0.0574427 -0.742021 -0.0249358 -0.669912
0.0627663 0.233219 0.102957 0.947969 -0.318051 0.0140953
-0.0230381 -0.482092 -0.140293 -0.291232 -0.939399 0.180868
0.0698634 -0.357329 -0.0734035 0.559606 -0.035382 0.828003
-0.0173879 0.319603 -0.022856 -0.883288 0.453975 -0.117086
0.087469 0.288899 0.0693906 0.906314 0.0429055 0.42042
0.013361 0.483353 0.0454495 -0.0590672 0.695692 0.715908
0.00997999 0.240286 0.19598 -0.568873 0.615416 0.54557
-0.0381764 0.38905 -0.00493056 -0.667789 -0.349639 -0.657123
-0.00277487 0.185946 -0.145044 -0.125138 -0.504556 0.854262
0.00709776 -0.31298 0.0424949 -0.970331 -0.142557 -0.195284
-0.0129027 -0.0541965 -0.11093 -0.386198 -0.113461 -0.915411
-0.00390953 0.122712 0.274931 0.359912 0.20217 0.910819
0.0814989 -0.396318 -0.0916183 0.693763 0.209462 0.689071
0.0166507 -0.270094 0.0210895 -0.319232 -0.0580133 -0.945899
0.0900276 0.220914 -0.0521733 0.781912 -0.023101 -0.622961
-0.0219415 0.308637 -0.00119166 -0.972417 0.232961 0.0115842
0.0831437 -0.415568 -0.116169 0.831726 0.140666 -0.537071
-0.0434155 0.0147486 -0.0786426 -0.952153 -0.0965981 -0.289955
-0.0510304 0.398797 0.0181958 -0.921872 -0.297493 -0.248295
0.0436073 0.161944 -0.0965528 0.624128 -0.0360071 -0.780492
0.0733358 0.326669 0.0897376 0.792734 0.432298 0.429757
0.00173503 0.335685 -0.0532393 -0.68041 0.706798 -0.193595
0.0040747 0.0906689 0.256899 0.767328 -0.547431 0.333957
0.00368058 -0.345389 0.0388093 -0.421279 0.340022 0.840779
0.0323982 0.291336 0.16345 -0.143935 0.583716 0.799098
0.0574664 -0.23805 0.0242953 0.535246 0.178267 -0.825671
-0.0139688 0.244185 0.107039 -0.995594 0.0890443 -0.0293994
0.0414752 -0.197113 -0.0425481 0.330056 -0.340569 0.880384
0.0305402 0.367363 0.0543436 0.280708 0.55123 0.785716
0.0349263 0.357129 -0.0594531 -0.23823 0.95455 -0.179113
0.0087236 -0.0942812 -0.113427 -0.0863747 -0.0289793 -0.995841
0.0256362 -0.420198 -0.132617 -0.754392 0.359235 -0.549403
0.0638324 -0.445784 0.0966823 0.0803065 0.0484792 0.995591
-0.101075 0.052229 -0.255308 -0.7693 -0.546905 0.330261
0.0942919 0.294017 0.0533994 0.975841 0.0963558 0.196086
-0.0254901 0.140744 -0.0772414 -0.419179 0.0671093 -0.90542
0.0164374 -0.34612 0.0493483 -0.424409 0.659916 0.61999
-0.0518223 0.179854 0.048069 -0.889342 0.115164 0.442503
0.0251032 -0.163607 -0.117874 0.00668157 0.0307431 -0.999505
-0.0540154 0.136846 -0.0564071 -0.800994 -0.021787 -0.598276
-0.0418316 0.118631 0.262504 -0.795717 0.601139 0.0739296
0.0149677 0.113331 -0.102462 -0.132984 0.11167 -0.984807
0.0415665 -0.404603 0.034286 -0.359974 -0.732558 -0.577734
-0.0602596 0.0358722 -0.0372786 -0.818862 -0.561844 -0.117458
0.00419269 0.461422 -0.0293591 -0.222284 0.132356 -0.965956
-0.00556576 0.110528 -0.253846 0.789 -0.279444 -0.547165
0.084423 0.262826 0.0734113 0.841803 -0.130396 0.523799
0.0327637 -0.400216 -0.106361 -0.92736 -0.372604 0.0342167
0.0372413 -0.326139 0.0752998 -0.648208 -0.301445 0.699255
-0.0261145 0.297428 0.0119174 -0.868647 0.495324 -0.0103616
0.103613 0.201907 -0.00724548 0.999879 0.00139635 0.0154971
-0.055843 0.237727 -0.0268309 -0.979669 0.19465 0.0485769
0.0810116 -0.0275292 -0.050498 0.755811 -0.65478 0.00352411
0.0556388 -0.317123 -0.0703576 0.326506 -0.153397 0.932665
0.0611824 -0.0655884 0.057085 0.947112 -0.235665 0.21781
0.0543595 -0.165678 -0.0559198 0.93122 -0.110743 0.347225
-0.0729308 0.0579554 -0.0197491 -0.983599 -0.139708 -0.114079
-0.0147379 0.115646 -0.260425 0.478852 -0.264049 -0.837245
-0.0395167 0.118874 0.28078 -0.28895 0.724441 0.625854
0.00870069 -0.367077 -0.0865011 -0.722846 -0.569956 0.390697
0.0828392 -0.364152 0.084133 0.644535 -0.0184795 0.764351
0.0628577 -0.143626 0.0317579 0.822325 0.0122926 -0.568885
-0.0702503 0.0948723 -0.28796 -0.397009 0.24104 -0.885598
-0.0721997 0.113635 -0.266029 -0.636942 0.766578 -0.0816305
-0.0314145 0.196912 -0.0702967 -0.6473 0.0141407 -0.762104
-0.0748192 0.074769 -0.00828872 -0.99797 0.061451 -0.0167075
0.013361 0.483353 0.0454495 -0.0590672 0.695692 0.715908
-0.072017 0.0606358 -0.27139 0.77249 -0.289954 -0.564965
0.105379 0.130997 0.00346674 0.997887 0.0340761 -0.0553135
-0.0130169 -0.281059 -0.102706 -0.300219 0.327003 0.896068
0.0468055 -0.167628 -0.0417561 0.546019 -0.165979 0.821166
0.0320022 -0.352212 -0.115742 -0.655304 0.034727 -0.754566
0.0350786 0.442415 -0.0310039 0.198563 -0.0289756 -0.97966
0.0648071 0.266725 -0.12555 0.976494 0.00131202 -0.215542
0.0297482 0.242479 0.203534 0.0842064 0.657561 0.748681
0.0262302 -0.349532 -0.0687128 -0.339779 -0.128761 0.931649
0.0356878 -0.0600143 -0.105203 0.77974 -0.196296 -0.594536
0.057771 0.183509 0.0904686 0.78614 -0.235404 0.571463
0.0359011 -0.347826 -0.124454 -0.652776 -0.0806093 -0.75325
0.0923425 -0.446028 -0.12092 0.894834 0.166617 -0.414138
-0.016535 0.194475 -0.0827851 -0.571818 -0.244132 -0.783214
0.0296112 0.399041 -0.0205258 0.372828 0.107048 -0.921705
-0.0212257 0.294991 -0.084369 -0.86055 0.387986 -0.330032
-0.0260993 0.13185 0.238014 -0.848028 0.417457 -0.326464
0.0783311 -0.286663 0.0336312 0.846249 0.0494556 -0.530488
-0.00512406 -0.216728 -0.0722461 -0.599986 -0.278884 0.749827
0.0198336 -0.451632 0.0877272 -0.265004 0.713373 0.648746
0.0860069 -0.439205 -0.130546 0.81859 0.183693 -0.544213
0.0593549 -0.0655275 0.0637556 0.96131 -0.163626 0.221607
-0.0216522 0.0573158 -0.0972838 -0.579291 0.142258 -0.802611
0.095754 -0.398998 0.0543436 0.932916 0.319788 -0.165542
0.0402568 0.222863 0.216571 0.504353 0.479052 0.718427
0.102577 0.0566152 -0.0464164 0.936254 0.00993594 -0.351183
0.0443384 -0.179446 0.01325 0.286827 -0.0575612 -0.956251
-0.0503907 0.235534 0.0361136 -0.972259 0.167425 0.163346
0.0489377 0.207633 -0.171239 0.957328 -0.184591 -0.222372
0.0507957 -0.201377 0.0890675 0.376331 -0.12388 0.918166
0.0772955 -0.328576 -0.126159 0.608496 0.135836 -0.781844
0.0988609 0.152928 -0.0326183 0.981514 -0.0779647 -0.174791
0.0288497 0.157314 0.24703 0.637729 0.0473878 0.768802
-0.00694026 0.236265 -0.162223 -0.762322 0.415499 -0.496212
0.0447648 -0.179324 0.0940019 0.303593 0.154961 0.940116
0.0258494 0.150613 -0.214126 0.868062 -0.146928 -0.474215
0.0318499 -0.0495667 0.000156175 0.681812 -0.71932 0.133085
0.0433027 0.475068 -0.0211959 0.484198 0.519917 -0.703731
-0.0329679 0.14842 -0.259207 -0.250474 0.574543 -0.779207
0.0500647 0.0722104 0.0877272 0.55057 -2.73958e-05 0.834789
0.0246919 -0.208565 -0.0503761 -0.364577 -0.335919 0.868471
0.0786966 -0.456993 -0.091862 0.224622 -0.13567 0.964955
0.00383289 -0.353431 0.037926 -0.647874 0.141027 0.748579
0.078453 0.298646 0.0943065 0.947857 0.0828569 0.307738
-0.0346432 -0.474781 -0.128718 -0.630622 -0.166159 0.758095
0.0264586 -0.168237 -0.0352987 -0.180286 -0.286157 0.941069
-0.00120717 0.300108 -0.125672 -0.688316 0.442942 -0.574477
0.0228339 0.482378 0.0459977 0.209321 0.711697 0.670576
-0.0404914 -0.481604 -0.147481 -0.577525 -0.805433 0.133199
0.0273115 0.233829 -0.197313 0.158754 0.639666 -0.75208
0.0744932 0.03307 -0.0868666 0.544596 -0.186882 -0.817612
0.0864334 -0.334424 -0.107701 0.990933 0.126332 -0.0457482
0.0771128 -0.00672158 0.0573896 0.790002 -0.112114 0.602767
-0.0138165 0.21738 0.102774 -0.875246 -0.343161 0.34086
0.00722723 0.376135 0.0554706 -0.210078 0.225704 0.951276
-0.0569395 0.0846988 0.0395099 -0.840566 0.104665 0.531502
0.0151733 0.123382 -0.102218 -0.123555 0.187921 -0.974382
-0.0109228 -0.254986 0.042434 -0.888214 -0.327856 -0.321847
0.015478 -0.217094 0.0910169 -0.225792 0.0205534 0.973959
-0.0135881 0.125758 -0.183545 -0.494115 -0.45509 0.740772
0.0197575 -0.25328 -0.0649358 -0.400823 -0.272092 0.874818
-0.0456695 0.267212 -0.0442233 -0.928242 0.365731 -0.0678855
-0.040796 -0.0927583 -0.0830287 -0.996621 -0.0776137 0.0268746
0.00180453 0.445096 0.0549224 -0.318302 0.00740721 0.94796
0.0441861 0.346651 -0.0949079 0.306709 0.853692 -0.420879
0.00900531 0.404645 -0.023587 -0.0497188 -0.313358 -0.948333
-0.0146998 -0.229643 -0.111782 -0.751568 -0.419223 -0.50931
