ply
format ascii 1.0
element vertex 815
property float x
property float y
property float z
property float nx
property float ny
property float nz
element face 0
property list uchar int vertex_indices
end_header
-0.0332835 0.396086 0.0412656 -0.665294 -0.312736 0.677923
0.0658369 -0.233198 0.0362913 0.711487 0.24178 -0.659794
-0.00974316 0.494172 0.0179915 -0.242455 0.969993 -0.018148
-0.0555232 0.129209 -0.235195 -0.917938 0.185041 0.350926
0.015075 0.310656 -0.128103 -0.44714 0.439308 -0.77915
0.101493 0.23557 0.0179078 0.996781 0.0545688 0.058733
0.0963215 -0.483037 0.0467723 0.71705 -0.18733 -0.671377
-0.0457572 0.0757852 0.257061 0.252979 -0.821773 -0.510578
0.0635247 0.239586 -0.120436 0.97021 -0.241161 0.0231306
0.0607257 -0.0679364 0.0515488 0.967713 -0.0711378 0.241809
0.0455138 -0.101524 -0.0762003 0.927905 0.160439 -0.33653
0.0854297 0.25711 -0.0621445 0.801879 -0.082751 -0.591728
0.0483128 -0.135112 -0.0410001 0.92151 -0.115412 0.370809
0.050838 -0.470138 -0.154876 0.439495 -0.171719 -0.881678
-0.064194 0.0367212 0.0368694 -0.804172 -0.386304 0.451749
0.019319 -0.347956 -0.109423 -0.496402 -0.039216 -0.867206
-0.029876 0.393652 -0.00754921 -0.566282 -0.236219 -0.789636
-0.0202013 0.247618 -0.142585 -0.808007 0.300079 -0.507028
0.0075869 -0.294167 -0.108997 -0.822212 -0.122062 -0.555939
0.0503817 -0.127323 -0.066343 0.987509 0.0830423 -0.133906
-0.0129148 -0.0631599 -0.0307169 -0.713185 -0.322484 0.622392
0.0115458 -0.364507 -0.081494 -0.597414 -0.533611 0.598629
0.0887155 0.156712 -0.0552079 0.707786 0.156243 -0.688932
-0.0332531 0.167178 -0.178241 -0.971086 0.161462 0.175845
-0.0228938 -0.459429 0.0826114 -0.701495 0.686204 0.19243
-0.0450271 -0.0357481 0.0600066 -0.999581 -0.00763539 0.0279202
0.0198514 -0.442148 0.0554126 -0.679058 0.504506 -0.533249
0.0104429 0.173506 0.166763 -0.180227 -0.557035 -0.810697
-0.0838477 0.116066 -0.275476 -0.841626 0.473037 -0.26058
-0.0186497 0.305302 0.0553214 -0.872097 0.380147 0.308116
-0.00819921 0.280476 0.106829 -0.916408 0.349434 0.195171
0.0117968 0.265872 -0.157797 -0.730554 0.574965 -0.368383
-0.030378 -0.0136377 -0.105833 -0.502715 0.128083 -0.854911
-0.00303099 0.470076 0.055656 -0.338221 0.406194 0.848889
0.0866467 0.25638 0.0769526 0.809592 -0.11354 0.575907
-0.0125726 -0.0954394 0.0240686 -0.692247 -0.159891 -0.703725
-0.0301194 -0.0599654 -0.103034 -0.499623 -0.04274 -0.865188
-0.00697846 0.1903 0.0964846 -0.705716 -0.0874387 0.703079
0.0923664 0.264169 -0.0477541 0.82173 -0.0574273 -0.566976
0.0340441 -0.409047 0.0469548 -0.606449 -0.500545 -0.617798
0.0393074 0.354466 -0.0693245 -0.116692 0.969361 -0.216151
0.0641332 -0.0215402 -0.0732188 0.641025 -0.431462 -0.634766
0.01903 -0.314125 0.0366412 -0.502052 -0.425042 -0.753182
0.052633 0.208554 -0.159014 0.954153 -0.27439 -0.119592
0.0334356 -0.198758 0.0959978 0.04446 -0.0750379 0.996189
0.0374211 -0.180747 0.0141581 0.203873 -0.0736843 -0.97622
0.0242934 -0.0528158 -0.00899434 0.562778 -0.721501 0.403382
-0.0483128 0.393409 0.0140782 -0.948189 -0.316705 -0.0252272
0.00749562 0.144908 0.267527 0.580762 0.160036 0.798188
-0.0417109 0.121786 0.291866 -0.393535 0.768676 0.504249
-0.0491952 0.0119715 -0.0552079 -0.997998 0.0183779 -0.0605213
-0.0213118 -0.253034 0.0560211 -0.965391 -0.260804 -0.000849461
0.0531806 0.449632 0.0561124 0.666074 0.169199 0.726441
0.0594479 -0.355501 0.0319864 0.19945 0.0708332 -0.977345
-0.0229091 0.094222 -0.249676 0.612556 -0.79003 0.0250366
0.0237305 0.298243 0.161774 -0.43004 0.602902 0.671993
0.0711914 0.236301 0.0914343 0.877421 -0.223919 0.424256
0.027929 -0.446529 0.0482935 -0.674436 0.449854 -0.585464
-0.0113252 -0.266907 0.0576336 -0.810688 -0.576005 0.1049
0.0441752 0.21829 0.223838 0.41584 0.536101 0.734625
-0.041072 0.154765 -0.0609884 -0.584906 0.049207 -0.809607
0.0275334 -0.0477655 -0.110883 0.611894 0.191755 -0.767343
0.044449 -0.134017 0.0146981 0.467941 -0.105252 -0.87747
0.0554016 -0.0889287 0.0651178 0.962206 -0.0735351 0.262208
0.0754508 0.0166871 0.0792648 0.556926 -0.316376 0.767945
0.0640114 -0.216404 -0.0847798 0.924713 0.339041 0.173082
0.107517 0.0388204 0.0291113 0.971414 -0.0837288 0.222136
0.0208707 -0.40856 0.0539523 -0.853527 -0.506521 -0.122183
0.0788582 0.32964 0.0785955 0.828692 0.450301 0.332415
0.0437797 -0.152271 0.085958 0.614717 0.120749 0.77945
0.000995413 -0.0591439 -0.0102113 0.00848089 -0.900025 0.435757
-0.00621023 0.162554 0.270934 0.0568032 0.659144 0.749868
0.0943134 0.130304 0.0593677 0.856125 -0.0453231 0.514777
-0.0595088 0.0378164 -0.0269747 -0.851503 -0.521982 0.0497729
-0.01328 0.266116 -0.140394 -0.446484 0.408506 -0.7961
-0.0359608 0.142596 0.275315 -0.58438 0.58028 0.567252
0.0360216 0.364689 0.0632619 0.114773 0.62806 0.769655
-0.0604823 0.0899626 -0.289592 0.249549 -0.217088 -0.943715
0.0992421 0.195655 0.0614974 0.811825 -0.0140477 0.583732
0.0591741 -0.331406 -0.0754701 0.508319 -0.00803673 0.861131
0.0503817 -0.135599 -0.0754093 0.971965 0.046529 -0.230476
0.00502372 0.320878 0.114374 -0.83343 0.506196 0.221721
0.0635856 0.171316 0.0824897 0.667612 -0.00691498 0.744477
0.0758158 -0.423163 -0.136987 0.639277 0.15587 -0.753013
0.0912103 -0.463079 0.0452815 0.572242 0.0313094 -0.819487
0.0171742 -0.0719523 0.00404982 -0.0145234 -0.186442 -0.982359
-0.0152651 -0.473545 -0.116299 -0.327846 -0.419502 0.846484
0.082935 0.334265 0.037341 0.859817 0.509375 0.035377
-0.0295718 -0.165171 0.0790214 -0.741561 -0.0129122 0.670761
-0.0351698 0.147829 -0.0662213 -0.525764 0.114291 -0.842917
-0.0359304 0.379779 0.0315148 -0.71131 -0.504298 0.489613
0.103562 0.0200946 0.0402464 0.88589 -0.337109 0.318677
-0.0169156 0.160241 0.237955 -0.825586 0.546824 -0.139251
0.0296783 0.32599 0.139869 -0.150347 0.745542 0.649279
0.060026 -0.0227268 -0.00577703 0.464761 -0.80036 -0.37871
-0.0453313 0.0747508 0.259251 0.252979 -0.821773 -0.510578
-0.0421672 0.0992723 -0.235438 -0.112213 -0.448139 0.886893
0.0604215 -0.279564 -0.068351 0.575227 -0.031773 0.817376
0.00977361 0.321365 0.128916 -0.683217 0.598043 0.418998
0.0443882 0.385377 -0.015505 0.509107 0.212931 -0.833948
-0.0442969 -0.0618516 -0.0610493 -0.929393 -0.0931723 0.357139
0.0284309 -0.291003 -0.0670123 -0.493819 -0.0694666 0.866786
0.0824482 0.300434 0.0869924 0.931699 0.0989605 0.34949
0.0637681 -0.178557 0.0443993 0.947476 0.031171 -0.318303
0.100459 0.251999 0.0266014 0.99517 0.0936579 0.0293949
-0.0233806 0.177035 -0.206596 -0.817597 0.556611 0.147378
-0.0554016 0.232528 -0.023476 -0.987132 0.159576 -0.0102811
-0.0383339 0.433324 0.00104548 -0.870491 0.0858431 -0.484641
0.0372995 -0.374486 -0.123114 -0.63829 0.196946 -0.744176
0.00633576 0.259788 0.170171 -0.699949 0.549577 0.456111
0.0321275 -0.297818 -0.130659 -0.270845 -0.00575936 -0.962606
0.0593262 -0.171864 0.0383906 0.89213 -0.00305731 -0.451767
0.0831175 -0.294167 0.0516705 0.961777 0.151067 -0.228394
0.0321275 0.0719518 0.107072 0.240133 0.0188538 0.970557
0.0183759 -0.489365 0.104212 0.538397 -0.374355 0.754975
0.0698528 -0.272262 0.0837067 0.597629 0.0343263 0.801038
-0.100702 0.0596606 -0.256978 -0.593972 0.112824 0.796535
-0.0941918 0.062703 0.277749 -0.801705 0.237451 -0.548531
-0.032523 -0.181721 -0.0803988 -0.887735 -0.215777 0.406654
0.0184063 0.426753 0.0631403 -0.0714092 -0.182374 0.980633
0.039064 -0.0529071 0.0935031 0.446282 0.249311 0.859463
0.0666887 0.317228 0.11839 0.793233 0.46501 0.393125
0.070583 -0.24269 -0.0862401 0.980276 0.170806 0.0994151
0.0374211 0.348138 0.108411 -0.197255 0.915377 0.350962
-0.0635247 0.0792535 -0.247242 0.0961921 -0.821405 0.562175
-0.00274764 0.298243 0.0980667 -0.923322 0.360428 0.132547
0.0120173 0.136267 0.185261 -0.0763922 -0.520481 -0.850449
0.111594 0.0291 -0.00546519 0.977459 -0.209076 -0.0293619
0.0521767 -0.10767 0.0856538 0.948104 0.0138491 0.317658
0.000280729 -0.26423 0.026647 -0.610409 -0.0705904 -0.788935
-0.00315266 -0.299522 0.0340096 -0.611308 -0.225065 -0.758715
0.0691226 0.261735 -0.113135 0.96853 -0.220967 -0.114555
-0.0187562 -0.252547 0.0673387 -0.840826 -0.380072 0.385431
-0.0346526 -0.130609 -0.105346 -0.684301 0.0180798 -0.728975
0.00867077 0.405821 -0.0218027 -0.164413 -0.199591 -0.965987
0.0232437 0.123611 0.248907 0.827447 -0.277441 0.48822
0.0560708 0.0676317 0.0871141 0.595447 -0.0596538 0.801176
0.0558275 0.10919 -0.0865443 0.466688 0.18342 -0.865193
0.0712523 -0.330919 0.0285941 0.380175 -0.0350755 -0.924249
0.0548843 0.260761 0.182097 0.586462 0.501873 0.635756
-0.0312452 -0.212145 -0.095854 -0.944245 -0.306963 0.119059
-0.060026 0.149167 0.0239241 -0.972666 0.0366958 0.229291
0.0662628 0.430647 -0.00566294 0.894765 -0.164814 -0.415008
-0.0256928 -0.470381 -0.176051 -0.117969 0.417317 -0.901071
-0.0355348 -0.153001 0.0710808 -0.947866 0.0220484 0.317906
-0.0487996 0.0248255 -0.0370146 -0.950814 -0.309544 0.011662
-0.0250083 0.288751 0.0550475 -0.858863 0.376802 0.346951
-0.0155085 0.318688 0.0131655 -0.98873 -0.126355 -0.0802998
0.025708 -0.326538 0.0666998 -0.627283 -0.493893 0.602151
0.082144 0.334508 0.0576944 0.821948 0.541247 0.177351
-0.0256472 0.484923 0.0171472 -0.680595 0.732467 -0.0168096
-0.0443882 -0.0404029 -0.0548429 -0.773763 -0.283297 0.566598
0.0459702 -0.373755 0.0866882 -0.224734 0.355982 0.907068
-0.00568164 0.304815 0.0925904 -0.926696 0.310044 0.212385
0.0212357 -0.143509 -0.121653 0.258796 0.0482431 -0.964726
0.0102452 0.272201 -0.144532 -0.502905 0.551047 -0.665908
-0.0168548 0.27001 -0.123844 -0.935446 0.299916 -0.18706
0.070948 -0.240013 0.0788997 0.756794 0.179963 0.628391
-0.0434451 0.0172043 0.048689 -0.961048 -0.159205 0.225923
-0.00503133 0.207946 -0.215845 -0.387668 0.801455 -0.455394
0.0607865 -0.16225 0.0321689 0.885111 0.0533622 -0.46231
-0.0337703 0.454743 0.0416915 -0.742658 0.246012 0.622847
-0.0116294 -0.0454533 -0.114291 -0.364171 -0.12701 -0.922631
0.0707047 0.261005 -0.0916555 0.94988 -0.291301 -0.113457
0.0943134 -0.399555 0.0707462 0.831279 0.0452641 0.554009
-0.0752074 0.0505031 0.010666 -0.929096 -0.347674 0.126113
-0.0323708 0.170951 -0.210734 -0.914469 0.380092 0.138842
0.0353827 0.156469 -0.169844 0.848986 -0.454947 0.268785
-0.00139951 0.211475 -0.205866 -0.370962 0.821714 -0.432636
0.0644982 0.344 0.0870533 0.63333 0.695697 0.338966
-0.0305302 0.11777 0.0784738 -0.698656 -0.077336 0.711265
0.0480999 -0.132435 -0.0801554 0.927022 0.0819123 -0.365953
0.0865858 -0.46381 0.0427564 0.456301 0.0414116 -0.888861
-0.0651067 0.0988463 -0.292026 -0.0510872 0.121716 -0.991249
0.00302148 0.35836 0.061041 -0.351629 0.163172 0.921809
-0.0492255 0.254433 -0.0128125 -0.958711 0.276186 0.0677844
0.015866 -0.217986 -0.115934 -0.088372 0.0813414 -0.992761
0.0355653 -0.487175 0.098736 0.366848 -0.68082 0.633961
0.0300282 -0.270558 -0.0580069 -0.290025 -0.110377 0.950633
0.0298304 0.410689 0.0583333 0.291984 -0.257944 0.920983
0.036478 0.349112 0.103604 -0.242796 0.915433 0.320988
-0.0268489 0.201009 -0.151225 -0.977993 -0.0985288 0.183905
0.04524 0.347651 -0.0892216 0.203351 0.835104 -0.511126
0.0249018 -0.0146341 -0.102973 0.451959 0.0513641 -0.890559
0.0421368 0.147585 0.199621 0.858437 -0.510923 0.0451956
0.0153868 0.0489515 -0.110883 0.028583 0.127092 -0.991479
0.0133103 0.0703698 0.102143 -0.22687 0.136531 0.964308
0.0120478 0.249079 0.191589 -0.690829 0.517521 0.504903
0.108856 0.238369 -0.0246017 0.966427 0.030584 -0.255115
0.038486 0.174601 -0.0929942 0.289871 0.0211298 -0.956832
0.0591436 0.238369 -0.150982 0.96595 -0.0240962 -0.257604
0.0119185 -0.125133 0.102448 -0.0113921 -0.0342313 0.999349
-0.0362042 -0.188658 -0.0979837 -0.981619 -0.157678 -0.107522
0.0476435 -0.404666 0.0296438 -0.132308 -0.820317 -0.556395
0.0357174 0.34327 0.116443 -0.272616 0.887109 0.372449
0.0781889 -0.426084 0.0304348 0.169794 -0.166996 -0.971227
0.0797709 -0.0213881 -0.025271 0.529559 -0.828583 0.181707
-0.0508684 0.126045 0.0519748 -0.887389 -0.110665 0.447542
-0.00756406 0.169612 0.258156 -0.456617 0.818894 0.347727
0.1063 0.198332 0.0378582 0.984444 0.0303583 0.173056
0.0780672 -0.239039 0.054074 0.968472 0.143575 -0.203588
-0.0156834 0.344 0.0525528 -0.598165 -0.164535 0.784301
-0.00170275 -0.167848 -0.12068 -0.156318 0.10252 -0.982372
0.0369952 -0.3813 -0.124817 -0.841092 0.337803 -0.422438
0.0951653 -0.409047 0.0703811 0.87609 0.111545 0.469068
0.108308 0.0474912 0.00953809 0.99418 0.0868209 0.0637772
0.0432929 -0.10627 -0.0793035 0.930283 0.166569 -0.326845
-0.0313364 0.131521 -0.205379 -0.89422 -0.146545 0.42296
0.0485258 0.406795 -0.0123714 0.689476 -0.3422 -0.638374
-0.0485866 0.0310319 -0.0389008 -0.875476 -0.483001 -0.0158393
0.041437 0.389758 0.0451903 0.731907 -0.0158534 0.68122
0.0464266 -0.154218 -0.085084 0.941795 0.0268855 -0.33511
0.0419543 -0.18525 -0.120558 0.603401 0.154374 -0.782353
0.0783715 0.0368733 -0.0815549 0.655045 -0.146059 -0.741339
-0.0497428 0.12349 0.269961 -0.606953 0.78011 -0.151775
0.0313364 0.473484 -0.021179 0.207616 0.537614 -0.817231
-0.045453 0.11418 0.240267 -0.814227 0.197722 -0.54584
0.102224 -0.475249 0.0656046 0.997564 -0.0333682 0.0612641
0.0930965 0.13067 -0.0564249 0.816957 0.0586623 -0.573708
0.105692 0.0994548 0.00912963 0.999737 0.0139073 0.0182592
-0.051416 0.0697004 0.288458 0.617704 -0.774385 0.137002
0.0415588 -0.455534 0.0936248 0.29715 0.10589 0.948941
-0.0328576 -0.472085 0.107011 -0.184082 0.268379 0.945562
0.0152195 -0.337734 -0.108023 -0.523205 0.017417 -0.852029
0.0885938 -0.429248 -0.127981 0.735689 0.191434 -0.649703
-0.0256015 0.0765762 0.0770135 -0.672212 0.113843 0.731554
-0.00849582 0.115762 -0.257951 0.766221 -0.476396 -0.431221
-0.000258614 -0.473545 0.0506361 -0.176941 -0.350807 -0.919579
-0.0688792 0.0614252 -0.0421562 -0.954423 -0.054314 -0.293475
-0.025419 0.186771 -0.167289 -0.981649 0.189224 -0.0236433
0.0369648 -0.402962 0.0840717 -0.341991 -0.190067 0.920281
0.00618739 -0.363776 0.031241 -0.716952 0.139215 -0.683081
0.0647416 0.35544 0.0454337 0.754262 0.637487 0.157161
0.0285374 -0.145091 0.0120151 0.221623 -0.0945008 -0.970542
0.0430496 -0.196081 -0.0472674 0.712143 -0.147727 0.686315
0.011987 -0.11558 0.00868183 -0.315712 -0.211402 -0.925006
0.0530285 0.169003 0.169927 0.665253 -0.677251 -0.314276
-0.0544584 0.19249 0.0319255 -0.96894 0.0839798 0.232601
-0.0263774 -0.0472178 0.0114713 -0.78804 -0.430851 -0.439728
0.0711914 -0.254494 0.0374626 0.634846 0.101649 -0.765923
-0.0442361 0.0041944 -0.0828935 -0.842756 0.0229905 -0.537804
0.0324317 0.361768 0.0663043 0.00339088 0.767828 0.640647
0.0836652 0.107122 -0.0713325 0.627646 0.137028 -0.766344
0.065411 0.180078 0.0818812 0.661637 -0.0706398 0.74649
0.0856123 -0.397121 -0.136257 0.847596 -0.0565613 -0.527618
-0.0238066 -0.0955611 -0.106746 -0.353428 0.105179 -0.92953
0.0489213 0.468616 -0.0168893 0.550152 0.417419 -0.723252
-0.00562075 0.293132 0.0944767 -0.903691 0.386472 0.18434
-0.0235936 -0.051538 -0.106016 -0.417269 -0.112066 -0.901847
0.101433 0.0657454 -0.0525915 0.917236 0.101245 -0.385262
0.0229699 0.219628 0.229436 -0.178176 0.638696 0.748546
0.0168548 -0.476953 0.110236 0.346561 -0.0538412 0.936481
-0.0135386 0.241899 0.114252 -0.985668 -0.0635532 0.156269
-0.033101 0.128844 -0.0706632 -0.636697 0.0206065 -0.770838
-0.0488605 0.0303322 -0.0322076 -0.877044 -0.480388 -0.00449975
0.033314 0.206972 -0.104008 0.345495 -0.938267 -0.0169977
0.0723475 -0.37984 0.0224105 0.666462 0.116184 -0.736431
0.00926399 -0.480847 -0.158649 0.071857 -0.83488 -0.545721
-0.0478565 0.429674 0.0237644 -0.972949 0.230248 0.0188838
0.0388815 -0.250235 0.0894872 0.308756 -0.138614 0.940987
0.00106674 0.481272 0.0485369 -0.229945 0.687713 0.688605
-0.00296058 -0.0889896 -0.0262446 -0.60184 -0.173486 0.779546
0.0186802 0.491981 -0.000863604 0.131033 0.908418 -0.396998
0.0159116 -0.479143 0.0531004 -0.230799 -0.61572 -0.753406
-0.0350785 0.345217 0.0319255 -0.989222 -0.0114652 0.145973
0.0940092 -0.375946 0.062623 0.992313 0.123431 0.008955
0.0462745 0.360064 0.0712634 0.261375 0.87054 0.416945
0.00120271 0.180321 0.21751 -0.888517 0.451916 0.0794252
0.0976601 0.169977 0.0596415 0.757647 -0.101534 0.644719
-0.032523 0.148924 -0.189316 -0.955211 -0.221243 0.196528
-0.0457877 -0.0788889 -0.0872137 -0.992453 -0.100439 -0.0703509
0.0232437 -0.484984 0.0882702 0.107622 -0.957638 0.26711
0.103136 0.280476 -0.0267314 0.951342 0.133127 -0.277895
0.052633 -0.0497126 -0.0684727 0.870003 -0.401411 -0.286294
0.0600868 -0.367184 -0.139056 0.0222404 0.217831 -0.975733
0.0798317 0.214274 0.0737277 0.672714 -0.0633136 0.737189
-0.070583 0.0669623 0.0211708 -0.918632 0.173809 0.354832
0.100702 0.159268 -0.0302605 0.96477 -0.0941975 -0.245653
0.0158508 -0.383734 -0.129685 -0.303245 0.849829 -0.431083
0.0177674 -0.383004 0.0257343 -0.322984 -0.0360378 -0.945718
-0.0513552 0.226322 0.00245258 -0.975073 0.200306 0.0954438
0.0595088 -0.101768 0.0253236 0.888761 -0.0476598 -0.455887
-0.0274422 0.0357476 -0.0998699 -0.59864 0.10789 -0.793719
-0.0189083 0.461071 -0.0154442 -0.480807 0.195458 -0.854764
0.0632813 -0.241351 -0.0732188 0.832308 0.0986497 0.545465
-0.0390032 -0.0163682 -0.00130475 -0.843944 -0.484258 -0.230764
0.0417109 0.0775498 0.103239 0.366067 -0.111947 0.923831
0.0565576 -0.204721 0.0741536 0.92754 0.104962 0.358683
0.0828742 0.241899 -0.0574593 0.791435 -0.022838 -0.610826
0.0413458 -0.0431411 0.0854712 0.624297 0.243889 0.74214
-0.0584439 0.194438 0.0110929 -0.981411 0.144719 0.126054
0.0274118 0.166326 0.254749 0.538645 0.135937 0.831494
-0.0296175 0.155617 -0.258925 -0.227566 0.661033 -0.715017
-0.0430496 0.0497121 0.0629273 -0.75796 0.144389 0.63612
0.0639506 -0.286135 -0.123722 0.537774 0.203809 -0.818084
-0.0491647 0.0724994 0.297464 0.57239 -0.743564 0.345663
-0.0401897 -0.458212 -0.151712 -0.775487 0.627412 0.0705336
0.0895674 -0.382031 -0.124452 0.935213 0.176602 -0.3069
0.00262217 -0.332866 -0.0793644 -0.799306 0.0681556 0.597046
-0.0391857 -0.0630077 -0.100052 -0.689823 0.0191883 -0.723724
0.018741 -0.465757 0.103786 0.320786 0.304263 0.89695
-0.0489213 0.15367 -0.0557556 -0.69901 0.0386354 -0.714068
-0.0123672 0.122455 0.202055 -0.511955 -0.463828 -0.723025
0.0898716 -0.381544 -0.110275 0.964836 0.206184 -0.16303
-0.0382426 0.109799 -0.277909 0.588783 -0.0384156 -0.807377
-0.0216161 -0.2276 -0.089891 -0.900487 -0.409707 0.145821
-0.0679057 0.0514462 -0.0309907 -0.85983 -0.478416 -0.178357
-0.00818399 0.179226 0.193049 -0.925814 0.376965 0.0276829
0.0386381 -0.363776 -0.126156 -0.694218 -0.0673545 -0.716606
-0.0201405 0.233867 -0.148183 -0.833824 0.144881 -0.532678
0.0327359 0.42797 -0.0261837 0.29448 -0.171839 -0.940081
-0.0315189 0.156834 -0.257465 -0.534769 0.624858 -0.568837
-0.0264686 0.0827218 0.260712 0.414725 -0.862946 -0.288664
-0.0372386 0.217925 0.0719023 -0.775117 -0.103281 0.623319
0.0845779 0.311386 0.0789606 0.898322 0.245512 0.364336
0.0483433 -0.405639 0.0328382 -0.147087 -0.793945 -0.589929
-0.0231372 -0.485228 0.0956328 0.198595 -0.706949 0.678811
0.0862208 -0.472815 -0.13723 0.400667 -0.429074 -0.809544
0.0163375 -0.195351 -0.0427342 -0.26271 -0.429381 0.864069
0.0906017 -0.425354 -0.121897 0.788141 0.180021 -0.58858
0.0716782 -0.408803 -0.0852057 0.202174 0.0725248 0.97666
-0.0510814 0.115397 0.296247 -0.432021 0.795834 0.424271
-0.0433842 -0.0611215 0.0647831 -0.989257 -0.126103 -0.0739503
-0.0160181 0.158659 0.198891 -0.980644 0.0534908 -0.188348
0.0111047 0.291185 -0.133579 -0.393203 0.524713 -0.755028
-0.0322491 0.151358 0.078778 -0.682995 -0.0219483 0.730094
0.105692 0.0991506 0.0125913 0.999734 0.00797571 0.0216384
0.00897499 0.201131 -0.0990789 -0.257574 -0.965481 0.0387666
0.103075 -0.473302 -0.117151 0.961617 0.259164 -0.0901508
0.0152119 -0.485228 0.0830982 0.0115275 -0.993863 -0.110018
-0.0371169 -0.0831482 -0.101452 -0.52884 0.0814731 -0.844802
0.00362041 0.242872 0.187086 -0.802253 0.419041 0.425199
0.0788582 0.106087 0.0762224 0.641036 -0.0747714 0.76386
0.0383643 -0.283701 0.0216043 0.0535792 -0.0203396 -0.998356
-0.00812316 -0.0586876 -0.113561 -0.385219 -0.125735 -0.914219
0.0146338 -0.203139 -0.0476933 -0.344941 -0.374007 0.860892
-0.0148772 -0.126228 -0.041213 -0.725827 -0.179762 0.663974
-0.035474 0.287534 -0.0427342 -0.886513 0.453234 -0.0931347
-0.0608778 0.188596 -0.0121584 -0.983161 0.182349 -0.0119484
-0.00111143 0.24628 -0.159257 -0.637138 0.645086 -0.421805
0.00332189 0.221332 0.193658 -0.899852 0.213842 0.380181
0.0857948 -0.409047 0.0745187 0.644555 -0.0493776 0.762962
0.0247649 -0.40856 -0.128833 -0.968207 -0.208672 -0.137956
0.0780672 0.314064 -0.0708457 0.88131 0.210494 -0.423065
0.0358695 -0.0366304 -0.000863604 0.564718 -0.419495 -0.710716
-0.00951499 0.310656 0.0671562 -0.855691 0.375267 0.356325
-0.0463049 0.103532 0.31012 0.0966221 0.379904 0.919966
0.0161246 -0.483767 0.110175 0.518507 -0.069226 0.852266
-0.0591741 0.0999416 -0.245539 -0.434902 -0.102098 0.894671
0.0181782 -0.437523 -0.145749 -0.639368 0.66969 -0.377788
0.0604215 0.225713 -0.130172 0.963023 -0.26344 -0.0564449
0.0544584 -0.124585 0.057877 0.991946 0.114049 0.0550967
-0.0330706 -0.139128 0.0573902 -0.991412 -0.0447299 -0.122892
-0.0278681 -0.165536 0.079995 -0.73188 0.0545393 0.679247
0.106483 0.106817 -0.00700159 0.997485 0.0526019 -0.0474983
-0.0507467 0.0371471 -0.0156267 -0.850922 -0.525122 0.0134078
0.00327058 -0.279807 -0.105042 -0.780242 -0.00817252 -0.625424
-0.0371169 -0.121786 -0.0769305 -0.954412 -0.209756 0.212367
0.0514769 0.164866 0.191589 0.918263 -0.390663 0.0646125
0.0310474 -0.109191 -0.114108 0.643232 0.171634 -0.746187
-0.025632 0.152331 0.274828 -0.350005 0.737089 0.578097
-0.0324925 0.00540374 -0.0984096 -0.603199 0.251059 -0.757047
-0.00507314 0.251512 0.145102 -0.859364 0.318313 0.400214
-0.0336182 0.286804 0.032823 -0.87333 0.475111 0.107538
-0.018239 -0.0754206 0.0202961 -0.685577 -0.298884 -0.663817
0.10557 0.0807138 -0.0277658 0.992306 0.0558591 -0.110489
0.054428 -0.0345312 0.0741536 0.711076 0.157708 0.6852
0.0416196 0.209041 -0.103521 0.240896 -0.929113 0.280568
0.0516594 0.088989 0.0928946 0.682119 -0.105163 0.723639
-0.00122168 0.0959865 0.0953894 -0.417373 -0.00821105 0.908698
-0.0465179 0.244941 0.0426651 -0.947654 0.259733 0.185717
0.00363182 0.096595 0.0969106 -0.363658 0.0162911 0.93139
-0.0442056 0.157929 -0.241401 -0.743312 0.657004 -0.12583
-0.0626728 0.0900234 -0.0461721 -0.793447 0.263833 -0.548484
-0.0121771 0.19967 -0.196496 -0.872468 0.459678 -0.165818
-0.0216921 0.18385 -0.233856 -0.583663 0.750087 -0.310976
0.0876811 0.311386 -0.0522873 0.901926 0.205456 -0.379892
-0.0332227 0.380996 0.00221679 -0.553497 -0.50484 -0.662402
-0.0189844 0.0833911 0.0823072 -0.633701 -0.0212592 0.773286
0.0553407 -0.131948 0.0832199 0.851074 -0.0407014 0.523466
-0.0367822 0.194559 -0.0634223 -0.60936 0.00660201 -0.792867
0.0576529 -0.105236 0.0225398 0.722943 -0.0175231 -0.690685
0.0176305 0.301651 -0.129442 -0.453227 0.457207 -0.76521
0.0296479 0.21902 -0.206231 0.40916 0.337601 -0.847711
0.0522983 0.364202 0.0526136 0.545891 0.70039 0.459844
0.0767286 -0.465513 -0.140394 0.467624 -0.0415279 -0.882951
0.0530285 0.382456 0.00391292 0.823457 0.547222 -0.149889
0.0575921 -0.222367 0.0837067 0.642542 0.228433 0.731408
0.0693052 -0.442391 -0.141611 0.488776 0.0467765 -0.871154
0.0383339 0.127505 -0.0945762 0.419912 0.0482671 -0.90628
-0.0143144 -0.284918 -0.0987747 -0.00676377 -0.472867 -0.881108
0.0264686 -0.243785 -0.0592847 -0.18962 -0.0577139 0.98016
-0.0307584 0.261491 0.0683123 -0.870424 0.326219 0.368705
-0.0396117 0.0868594 -0.278883 0.598806 -0.486306 -0.636347
0.0622773 0.205633 0.0955111 0.898858 -0.212354 0.383353
0.00212207 0.257841 -0.146114 -0.511111 0.527288 -0.678773
-0.00124071 0.099759 0.259495 0.676238 -0.645385 0.355218
0.0346222 -0.200097 -0.042217 0.381808 -0.1573 0.910758
-0.0309866 0.0962907 -0.242131 0.297074 -0.849921 0.435179
0.057014 0.402171 0.0207448 0.91531 -0.339209 0.217128
0.0840303 0.245549 -0.0584937 0.782205 -0.049895 -0.62102
0.0842128 0.176305 0.0729975 0.549601 -0.0289994 0.834924
0.0655935 -0.222245 -0.100843 0.906582 0.340681 -0.249091
-0.0237914 0.123976 0.214711 -0.764365 -0.0334003 -0.643918
0.092488 -0.414401 -0.107902 0.971156 0.237634 -0.0196683
-0.0554928 0.11704 0.266796 -0.709547 0.552509 -0.437351
0.024704 -0.471598 0.105186 0.574279 0.0809778 0.814645
0.0359 -0.361099 -0.124331 -0.696039 -0.114447 -0.708824
0.0603302 -0.117588 0.036915 0.999042 -0.0370226 0.0233177
0.0497731 0.161702 0.194997 0.912155 -0.399057 0.093415
-0.0249931 -0.229182 0.0533438 -0.967681 -0.242989 -0.0674533
0.0154096 0.14722 -0.232274 0.820707 -0.153781 -0.550266
-0.0120402 0.231068 0.114252 -0.999497 -0.0220547 -0.0228033
0.000397404 -0.312178 0.0646006 -0.790231 -0.349957 0.503055
0.0217377 -0.468921 -0.10632 -0.407146 -0.116819 0.905861
-0.0176153 0.126775 -0.185665 -0.345704 -0.340618 0.874339
0.045666 -0.30877 -0.0660996 0.222068 -0.227594 0.948096
-0.0760592 0.0783408 0.305739 -0.595654 0.432907 0.676601
-0.0207794 0.44452 -0.0166763 -0.557923 0.0939415 -0.824558
-0.0231525 0.184702 -0.219861 -0.746766 0.664916 0.0151133
0.00778849 0.331101 -0.0939069 -0.673548 0.689101 -0.267344
0.0499253 -0.0943441 0.0745796 0.969549 0.0175237 0.244268
-0.0286439 -0.457968 -0.161934 -0.186525 0.851597 -0.489889
-0.037269 0.436002 0.0332794 -0.950935 0.176759 0.253927
0.0503208 -0.315098 -0.0698722 0.461125 -0.194209 0.865821
-0.0521462 0.17521 0.0459204 -0.94127 0.104247 0.32116
-0.0162006 0.454013 0.0520052 -0.476955 0.080157 0.875265
0.0505642 0.267333 -0.153902 0.751497 0.340328 -0.565181
-0.0191517 0.16158 0.251706 -0.733391 0.677194 -0.0595489
0.014862 0.171559 0.261442 0.142859 0.400415 0.90513
0.091697 -0.464296 0.0790214 0.758215 -0.138044 0.637224
0.0143523 -0.0841218 0.00458984 0.2271 -0.402075 -0.886996
-0.0200797 -0.124768 0.0356981 -0.799616 -0.070335 -0.596379
-0.0384251 -0.111016 -0.102 -0.792818 -0.0835744 -0.603701
0.0228634 0.10201 0.103421 -0.178032 0.0171473 0.983875
0.0519941 -0.114971 0.0856538 0.939655 0.0380802 0.339998
0.0369344 0.137119 0.189885 0.577314 -0.709612 -0.403931
-0.0348351 0.162919 -0.20039 -0.943788 0.304768 0.127986
0.0592349 0.0936135 -0.0878221 0.448374 0.170028 -0.877526
0.0741729 -0.0394598 0.0649961 0.91564 -0.318229 0.24563
-0.0056132 -0.286865 -0.0897084 0.264285 -0.58984 -0.763048
-0.0987553 0.065502 0.290649 -0.844481 0.512134 0.156746
0.0571357 0.0628855 0.0871141 0.576472 -0.0288699 0.816607
-0.00835894 0.114971 0.283347 0.550608 -0.0988138 0.828895
0.0396117 -0.153244 -0.0951238 0.939254 0.0697053 -0.336071
0.0527547 -0.103715 0.0615278 0.990478 0.0590777 0.124353
0.0418022 -0.35258 -0.132971 -0.541606 -0.128038 -0.830824
-0.0639506 0.14795 -0.000559366 -0.989605 0.0841697 0.116607
-0.0503512 0.049134 -0.0707849 -0.82184 -0.123572 -0.556156
0.0781889 0.306275 0.0985534 0.917744 0.216135 0.333215
-0.0329488 0.148802 0.262172 -0.800073 0.586837 0.124519
0.0507163 -0.288082 0.0237644 0.238101 0.0311056 -0.970742
-0.0191061 -0.48036 0.0550475 -0.236815 -0.597166 -0.766363
-0.0227265 -0.485471 0.0754923 -0.272889 -0.926403 -0.259439
0.0786757 -0.373025 0.0356677 0.792313 -0.0358924 -0.609058
0.0996072 0.278529 0.00893615 0.970004 0.148611 0.19237
-0.0109601 -0.13499 -0.0414564 -0.67973 -0.208281 0.703268
-0.0270163 0.197967 0.0775002 -0.696672 -0.0166005 0.717198
0.0536978 0.377588 0.0138995 0.953095 0.30163 -0.0251032
0.0750857 -0.3353 -0.0844147 0.894268 0.103607 0.435374
-0.0096671 0.034774 -0.109849 -0.324365 0.0244594 -0.945616
-0.0530285 0.0756635 -0.252597 0.00307177 -0.9477 0.319148
-0.0393074 -0.484741 0.0823072 -0.215342 -0.967642 -0.131519
0.0110362 0.229729 0.211547 -0.636648 0.495016 0.591302
0.0282636 0.473484 -0.0218331 0.172519 0.468635 -0.866383
-0.0324317 0.136998 -0.273772 0.21819 0.453613 -0.864077
-0.0242172 0.244454 -0.13005 -0.971379 0.214512 -0.102022
0.0812921 0.161093 0.0754923 0.544474 0.0416539 0.837743
-0.0719825 0.0706132 -0.295433 0.433583 -0.24449 -0.867312
-0.0463657 0.00388637 -0.0767479 -0.942035 0.088292 -0.323689
-0.048039 -0.0545804 -0.0794252 -0.992569 -0.0964883 -0.0741448
0.00349494 -0.218473 0.031028 -0.475268 -0.0066086 -0.879817
0.0099181 -0.470381 0.0457379 -0.255467 -0.116475 -0.959776
0.100581 0.0228175 -0.0563032 0.837123 -0.355148 -0.416046
0.0494994 -0.186589 -0.0964016 0.953949 0.216999 -0.207106
0.0596609 -0.220177 -0.0699938 0.828863 0.272506 0.488597
-0.0182542 0.42724 -0.0192928 -0.503998 -0.0235586 -0.863383
0.0800752 -0.2635 0.0659392 0.959533 0.129232 0.25019
-0.0396421 0.276582 -0.019095 -0.901336 0.429915 0.0525981
0.0179044 0.196141 0.115773 -0.22619 -0.944229 0.23931
-0.023548 0.37126 0.0288223 -0.999884 -0.0152132 0.00118091
0.0624903 0.246645 -0.138812 0.97341 -0.0725631 -0.217272
-0.0204295 -0.466 0.101657 -0.0642122 0.36993 0.926838
-0.0439014 0.453526 0.0156413 -0.978138 0.206395 -0.0254344
0.0407373 0.175697 0.102813 -0.00604779 -0.167957 0.985776
-0.0599043 0.0766979 -0.263306 0.0961741 -0.984644 0.145697
-0.0387294 0.104444 0.0640225 -0.779579 -0.113906 0.615859
-0.096078 0.0704914 -0.25211 -0.333634 0.365693 0.868883
0.0803185 -0.33749 -0.110944 0.99345 0.0497864 -0.102852
0.0643157 -0.0361436 0.0388013 0.855158 -0.48531 -0.18215
0.0514769 0.164866 0.191589 0.918263 -0.390663 0.0646125
-0.0191974 -0.0376952 -0.0083098 -0.679556 -0.729414 -0.0784835
0.0610299 -0.482794 -0.118611 0.190569 -0.972665 -0.13269
0.0682099 -0.371565 -0.0769305 0.480432 -0.24266 0.842794
-0.0101615 0.29946 -0.0879438 -0.82285 0.42005 -0.382722
0.0823874 0.024932 0.074397 0.584641 -0.327272 0.742353
0.0478869 -0.39493 0.0884528 0.130653 -0.253352 0.958511
-0.0629771 0.0768804 -0.289835 0.580048 -0.326728 -0.746185
0.0239738 -0.267881 -0.0651261 -0.583072 -0.247318 0.773861
0.0437188 0.393165 -0.00115263 0.919511 0.0428326 -0.390725
0.00381058 0.491495 0.0346637 -0.00913158 0.931269 0.364219
-0.038273 -0.118075 -0.0782083 -0.980359 -0.113487 0.161298
0.0149609 0.195655 0.144858 -0.307422 -0.847581 -0.432548
0.000107422 -0.0645289 0.00215595 -0.531265 -0.350408 -0.771344
0.0149989 0.130791 -0.181649 0.589221 -0.78303 0.199205
0.0108308 -0.192917 0.0902782 -0.282722 -0.0991887 0.95406
-0.014071 0.0726211 0.0890612 -0.580825 0.118493 0.805358
-0.036691 0.28291 -0.0475412 -0.890192 0.437182 -0.128181
0.0763026 -0.403936 0.0252095 0.418583 -0.0647556 -0.905867
0.0624294 -0.300008 -0.127373 0.488938 0.0570581 -0.87045
0.0710698 -0.0214946 0.00116718 0.384182 -0.899088 -0.209867
-0.0386685 -0.0737777 0.0542565 -0.960948 -0.222151 -0.16501
-0.046244 0.439409 0.01717 -0.984384 0.175591 0.0124961
0.0214639 0.346921 -0.0596498 -0.501316 0.860478 -0.0908845
-0.0183759 -0.111381 -0.0428255 -0.713182 -0.134695 0.687917
0.0634638 0.213179 0.175525 0.984872 -0.0838241 0.151658
0.0964431 0.0063811 -0.0339722 0.883667 -0.429666 -0.185796
0.0749032 0.280719 -0.0875787 0.972151 -0.102209 -0.210894
-0.0737471 0.0673274 0.00392813 -0.990564 0.0839404 0.108337
0.107091 0.272687 -0.0175738 0.982402 0.173746 -0.0685422
0.0599955 -0.39274 -0.0831369 0.0657099 -0.283305 0.956776
-0.0634638 0.145273 0.00865046 -0.979411 0.061536 0.192272
0.0201253 -0.315829 -0.118976 -0.689735 -0.208528 -0.693385
0.0337703 0.359577 -0.0349153 -0.303647 0.85251 -0.42547
0.0377558 0.171316 -0.195765 0.944883 -0.207468 -0.253286
0.0582005 -0.13353 0.0432432 0.988316 0.151245 0.0188827
-0.00455597 -0.161763 0.0897306 -0.369374 -0.103747 0.923471
0.0742338 -0.403206 -0.13577 0.635863 0.0230014 -0.771459
0.00322871 -0.297818 0.068008 -0.866061 -0.0516192 0.497267
0.0693052 -0.480117 -0.141368 0.194835 -0.815566 -0.544878
0.106483 0.140283 0.0300849 0.987035 -0.0240127 0.158696
0.00653728 0.18531 0.157149 -0.411348 -0.637527 -0.651423
-0.0244455 -0.22833 0.052066 -0.964 -0.236446 -0.12164
0.0186345 -0.433629 -0.128225 -0.855787 0.510604 -0.0831369
-0.0230003 -0.171012 0.0483848 -0.923529 -0.0043736 -0.383504
0.0203991 0.149532 -0.151103 0.199253 -0.595893 0.777952
0.0530893 -0.0683623 0.0142113 0.645489 -0.11309 -0.75535
-0.0540325 0.13785 0.0462551 -0.923284 -0.0248388 0.383313
0.0597217 -0.135355 0.0728758 0.960867 0.106267 0.255817
0.0218442 -0.477439 0.051275 -0.209268 -0.246923 -0.946169
0.0482824 -0.0545195 0.090765 0.660468 0.226404 0.715907
-0.0533328 0.209406 -0.0485756 -0.853099 -0.000652592 -0.521749
0.00285414 0.445981 -0.0239324 -0.242204 0.0844242 -0.966545
0.0551886 -0.356718 0.0800558 -0.318921 0.0970176 0.942803
0.102832 0.239708 0.0503319 0.973274 -0.0649108 0.220281
0.0053013 -0.474032 0.0497234 -0.126788 -0.379057 -0.916646
0.0389119 0.474214 0.0527353 0.382219 0.62427 0.681319
-0.0453922 0.253946 0.0208741 -0.961106 0.271031 0.0530785
0.0260731 0.153792 0.100379 -0.105157 -0.0629115 0.992464
-0.0326751 -0.207034 -0.102486 -0.955081 -0.274061 -0.112739
0.0134016 -0.300252 -0.116785 -0.792457 -0.162044 -0.588009
0.0604519 0.225835 -0.130659 0.963023 -0.26344 -0.0564449
0.105753 0.122333 0.0241523 0.994215 -0.0337206 0.101981
0.0336486 0.398033 0.0480197 0.51503 -0.166668 0.840813
0.0742947 0.256137 0.14425 0.982898 0.0565198 0.175265
0.0905409 0.133347 -0.0600149 0.736897 0.0952767 -0.669257
0.0756333 0.279989 -0.081494 0.963006 -0.100046 -0.25022
-0.00867838 -0.144604 -0.0423691 -0.606057 -0.263863 0.750381
0.00725984 0.172898 -0.146357 -0.304465 -0.427347 0.851279
0.000281188 -0.250844 0.0287615 -0.441199 0.0041088 -0.8974
-0.0147251 0.363958 0.0518531 -0.638499 0.324569 0.697835
0.0526938 -0.0839393 -0.0395093 0.843884 -0.150282 0.515049
-0.0435059 -0.115884 -0.091473 -0.993788 -0.10978 -0.0182562
0.0917579 0.325746 -0.00425585 0.899097 0.431235 0.0752418
0.0145121 0.159146 -0.234099 0.757123 -0.0502125 -0.65134
0.0130213 -0.442391 -0.145505 -0.339982 0.806596 -0.483544
-0.0225896 0.105357 -0.0791818 -0.574286 0.112707 -0.810859
0.048039 -0.452614 -0.095063 -0.319531 -0.202107 0.925771
-0.00259743 0.159755 -0.246999 0.453548 0.146857 -0.879049
-0.0169308 0.173263 -0.249433 0.0434635 0.603356 -0.796287
-0.0218898 0.270497 0.0844368 -0.866689 0.36719 0.33767
0.0999114 -0.464783 -0.101939 0.889458 0.227123 0.396585
-0.0389119 0.125193 -0.200755 -0.872663 -0.172407 0.456876
0.0053622 -0.48036 -0.160596 0.564483 -0.699865 -0.437662
0.0719216 -0.398338 -0.145992 0.546977 0.0585351 -0.835099
0.0642548 0.301651 0.137435 0.765753 0.479356 0.428765
-0.00293781 0.495389 0.0243576 -0.159834 0.977621 0.136787
0.0350785 0.354223 0.0869316 -0.176495 0.898135 0.402743
0.0527851 0.17594 -0.0867269 0.452091 -0.0615784 -0.889844
-0.0294805 0.129939 -0.202094 -0.809711 -0.237476 0.536631
-0.0155389 -0.166753 0.0854104 -0.493504 -0.0751526 0.86649
-0.0318841 0.127871 0.0767701 -0.709266 -0.0595077 0.702425
0.0986336 0.0146335 0.0198778 0.903169 -0.400241 0.155218
-0.0312452 0.1314 0.287485 -0.0490472 0.498778 0.865341
0.0357782 -0.282728 -0.0594064 -0.229537 -0.144144 0.962567
0.0398855 -0.0359915 0.0879051 0.645892 0.126596 0.752859
0.0520854 0.277799 -0.141611 0.721591 0.383795 -0.576201
0.0823874 -0.0131433 -0.0577635 0.805522 -0.311302 -0.504207
-0.0265599 0.196993 0.0775002 -0.696672 -0.0166005 0.717198
0.0955304 0.310899 0.00604257 0.939597 0.320066 0.121302
-0.0138123 -0.460889 -0.120193 -0.548514 0.419248 0.723439
0.049043 -0.035383 0.00780715 0.519206 -0.505784 -0.688918
0.0555232 -0.392496 0.0844368 0.240542 -0.350762 0.905045
-0.0390944 0.154522 -0.253084 -0.572392 0.735275 -0.362957
0.105631 0.10201 0.0239089 0.995448 -0.018748 0.0934417
0.0887155 0.156712 -0.0552079 0.707786 0.156243 -0.688932
0.0862208 -0.477439 -0.0901952 0.378577 -0.50108 0.778202
-0.047035 0.00377229 0.0340552 -0.993423 -0.0704795 0.0902389
-0.022544 0.161458 0.0911909 -0.602152 0.0390622 0.797425
0.0555232 -0.442148 -0.0833803 -0.153447 -0.0762612 0.98521
0.0492255 -0.331649 -0.135283 -0.162725 0.0208535 -0.986451
0.0532111 -0.194499 -0.112952 0.793642 0.0919601 -0.601395
0.0702788 0.354223 -0.00776218 0.799041 0.591634 -0.107249
-0.0748423 0.0798011 0.273368 -0.764499 -0.215487 -0.607541
0.0237457 -0.0773677 -0.0158245 0.711904 -0.0561004 0.700032
-0.00671984 0.288508 0.127699 -0.870346 0.400738 0.286193
-0.0162158 0.281449 -0.105346 -0.92293 0.311106 -0.226743
0.0703396 -0.406126 0.0203721 0.264171 -0.314943 -0.911606
0.0515986 0.38635 0.0325492 0.924321 -0.165373 0.343921
-0.0439014 -0.0729867 -0.0636049 -0.920132 -0.18228 0.3466
-0.0381209 -0.166144 -0.0995657 -0.902315 -0.019821 -0.43062
0.0323708 -0.456508 0.0418437 -0.362768 0.0823424 -0.928234
0.10198 0.144786 -0.0126452 0.990581 -0.0350863 -0.132355
-0.0246889 -0.150445 0.045677 -0.844421 -0.0779703 -0.529976
0.00793299 0.165474 0.105003 -0.183912 -0.169107 0.968287
0.0691226 -0.013303 0.0639617 0.764904 -0.02826 0.643524
-0.0693052 0.104749 -0.0155963 -0.990459 0.129808 -0.0462776
-0.0470046 0.0312449 -0.0549037 -0.848955 -0.470217 -0.241187
-0.0524504 0.145638 -0.0548429 -0.743766 0.0566572 -0.666035
0.0449662 -0.318019 0.0232091 -0.130028 -0.173563 -0.976201
-0.0172806 -0.479143 -0.120071 -0.152333 -0.827288 0.540731
0.046457 -0.0483435 -0.0762611 0.779068 -0.287934 -0.556909
0.0688792 0.226078 0.125144 0.969793 -0.23455 -0.0669867
0.0941309 0.277312 -0.0499142 0.864913 0.022877 -0.501401
-0.0386989 0.275365 0.012152 -0.914347 0.403553 0.0333815
-0.00263733 -0.157747 0.0217944 -0.572942 -0.12204 -0.810459
0.0597826 0.291185 0.156176 0.658003 0.457058 0.59844
0.104232 0.0973251 -0.0288002 0.980351 0.100721 -0.169611
-0.0251604 -0.0582921 0.0206764 -0.799345 -0.392847 -0.454663
0.0463049 -0.262283 -0.126156 0.114657 0.102432 -0.98811
0.0396725 -0.0518118 0.0916777 0.522234 0.256197 0.813409
0.0937658 0.0167176 0.0478067 0.840504 -0.40907 0.355268
0.0173415 -0.263257 -0.126034 -0.586802 0.100707 -0.803443
-0.00487161 0.329397 -0.038049 -0.719269 0.680359 -0.14058
0.0163071 0.454256 0.0654524 -0.122793 0.155343 0.980199
-0.0257689 -0.185372 -0.113926 -0.494555 -0.0658618 -0.866647
0.0564664 -0.0438712 -0.0400874 0.892924 -0.423572 0.152555
-0.0477348 0.0345915 -0.0729145 -0.882066 -0.0700587 -0.465887
-0.0110058 0.116918 0.204245 -0.468233 -0.511439 -0.720547
-0.033314 -0.182938 0.0657871 -0.998481 0.0496889 -0.0237928
-0.03949 0.164987 0.0729975 -0.777314 0.0861558 0.623186
0.0455747 -0.180747 -0.0525306 0.82978 -0.0987233 0.54929
0.0601172 0.363958 0.0293547 0.822186 0.533192 0.199291
-0.0377254 0.117587 -0.202094 -0.765442 -0.258666 0.589229
-0.0326142 -0.0413156 0.017923 -0.839974 -0.383712 -0.383678
0.0231676 -0.0765767 -0.103521 0.696253 -0.071195 -0.714257
-0.0345917 0.236057 0.0798733 -0.81526 0.112635 0.568035
0.0172654 0.196993 0.245013 -0.141252 0.627857 0.765404
-0.0383643 0.280719 -0.00735146 -0.899137 0.432032 0.070008
0.00633195 0.312117 -0.113256 -0.644079 0.489504 -0.587833
0.0558275 -0.445069 0.0960587 0.167234 0.107313 0.98006
0.0406157 0.190543 0.112305 -0.113003 -0.759452 0.640674
0.0554929 -0.0558886 -0.0411218 0.963523 -0.254174 0.0837821
0.0495907 -0.144117 -0.0475412 0.957273 -0.083642 0.276825
-0.0174328 0.357143 0.0049245 -0.92664 0.293782 -0.234585
0.0317319 -0.263013 -0.0567291 -0.269176 -0.13609 0.953427
0.0501078 0.211597 -0.177755 0.915432 0.0164049 -0.402139
0.0313364 0.157807 0.17589 0.238176 -0.607852 -0.757488
0.0591133 -0.434603 -0.142828 0.193562 0.0663982 -0.978839
0.0661411 -0.159207 0.0499059 0.974432 0.199686 -0.102992
-0.0460311 0.197845 0.0571772 -0.866544 0.078822 0.492837
0.0694269 0.228512 0.0998312 0.951238 -0.275531 0.138672
-0.0163528 0.201374 -0.166072 -0.924037 0.326602 -0.198713
0.0471568 -0.0203081 -0.089465 0.672449 -0.166977 -0.721062
-0.0779455 0.0850949 0.292109 -0.957409 0.0628506 0.281811
0.0607257 0.200157 0.0980667 0.81647 -0.358189 0.452855
-0.026134 -0.0540632 -0.104859 -0.512504 -0.143385 -0.846629
-0.0433842 -0.0863123 -0.0726103 -0.967962 -0.193594 0.159907
0.0244302 -0.289299 0.0804209 -0.327427 -0.184805 0.926628
-0.00689479 0.491495 0.0325949 -0.306441 0.875996 0.372458
-0.00019214 -0.080836 0.0994661 -0.217268 -0.0730562 0.973374
0.020901 -0.0667803 -0.112039 0.442842 -0.176594 -0.879037
0.103562 0.218533 0.0071055 0.997987 0.0327091 0.0543353
0.0524809 -0.323861 -0.134431 0.0707699 0.0578889 -0.995811
0.106544 0.0803487 -0.00668214 0.998657 0.0511118 -0.00842265
0.109464 0.0224524 -0.0249668 0.934555 -0.314785 -0.165881
0.0561621 0.184702 -0.0828326 0.537307 -0.140976 -0.831521
0.0130974 0.0746291 0.101657 -0.330931 0.14496 0.932455
0.0752074 -0.476953 0.0866882 0.333253 -0.452357 0.827234
0.0380296 -0.383248 0.0878443 -0.142216 0.0351799 0.98921
-0.017159 0.363228 0.0323819 -0.925481 0.357986 0.123815
0.0671147 0.216951 0.0864448 0.841481 -0.241517 0.4833
0.0514465 -0.198271 0.091556 0.61813 -0.0860668 0.78135
-0.041072 -0.143387 -0.0920815 -0.996132 -0.0239989 -0.0845287
0.0923055 0.180443 0.0682819 0.690068 -0.0605551 0.721207
-0.0535153 0.207337 0.0308607 -0.969067 0.118178 0.216665
-0.00955305 0.493198 0.00910539 -0.270795 0.959473 -0.0779869
-0.0308344 0.16012 -0.256491 -0.403847 0.680691 -0.611202
0.0155009 -0.100672 0.1019 0.00680918 0.0341086 0.999395
0.100094 -0.478656 -0.128955 0.787988 0.0512413 -0.613555
-0.00636614 0.227782 -0.186273 -0.802261 0.472185 -0.365264
-0.0744164 0.069883 -0.00379949 -0.995969 0.0877934 0.0183934
0.00038697 0.192977 0.110662 -0.580509 -0.495686 0.645991
-0.0278529 -0.131339 0.0469244 -0.844722 -0.069696 -0.530649
-0.0342571 0.148437 -0.214993 -0.963108 0.0344412 0.266901
-0.0749031 0.0598736 -0.292513 0.326086 -0.546784 -0.771165
0.0182694 0.189448 0.139625 -0.29741 -0.903189 -0.309513
-0.0273509 0.0463046 0.083159 -0.689044 0.148272 0.70939
0.0216008 -0.391523 -0.108997 -0.64587 -0.751477 0.134663
0.0378775 -0.398581 -0.090682 -0.589063 -0.185865 0.786421
-0.0251452 -0.126472 0.0829765 -0.765147 -0.13985 0.628484
0.027427 0.158173 -0.0926899 -0.0989476 0.110944 -0.988889
0.0323708 0.192247 0.126787 0.0390473 -0.997876 0.0521428
0.0819006 -0.0228332 -0.0349458 0.679503 -0.731167 0.0605814
0.00806226 -0.225896 0.0942941 -0.370051 0.0583032 0.92718
0.0665062 0.261491 0.165911 0.860712 0.25491 0.440676
0.0678449 0.192612 -0.0720627 0.736346 -0.0881897 -0.670833
-0.0174784 -0.118135 0.0877226 -0.654904 -0.0881954 0.750548
0.0906626 0.317714 0.0577857 0.936743 0.324203 0.131924
0.0454226 -0.0510816 0.0873575 0.762124 0.248824 0.597707
-0.0334661 0.0268791 0.0803601 -0.79073 -0.0527104 0.609892
-0.0147707 0.398033 0.052279 -0.348233 -0.15233 0.924948
-0.0362346 -0.142049 0.0725716 -0.941754 -0.0573907 0.33137
0.0495907 0.203686 -0.119463 0.843896 -0.406197 0.35049
0.0614863 0.226565 0.193658 0.910417 0.119651 0.396011
0.0943134 0.10268 0.0575423 0.829513 -0.0288497 0.557742
0.0440231 0.120569 -0.085875 0.500261 0.104622 -0.859531
0.0540021 -0.114667 0.0564775 0.992916 0.030343 0.114876
0.0519941 -0.402232 -0.0862401 -0.200168 -0.25277 0.946594
0.0502599 0.161337 0.188668 0.877425 -0.471773 -0.086925
0.0530589 -0.334326 0.0262667 -0.0437068 -0.1322 -0.990259
0.0154324 0.193464 0.137435 -0.228583 -0.94005 -0.253092
0.0648633 -0.4071 0.0288527 -0.0955909 -0.338036 -0.936266
0.0286592 0.190178 -0.0908037 0.284027 -0.241111 -0.928006
-0.052207 -0.483767 0.099527 0.0810501 -0.966898 0.241947
0.105083 0.136754 0.0365956 0.965074 -0.021019 0.261131
0.0393683 -0.018361 -0.0968884 0.580088 -0.108331 -0.807318
-0.0512944 0.105296 -0.0500663 -0.761981 0.206717 -0.61372
0.104901 0.1056 0.0345876 0.981246 -0.0492898 0.186349
0.0923664 0.103045 0.0599153 0.829513 -0.0288497 0.557742
-0.0646199 0.107243 -0.25138 -0.742114 0.31119 0.593656
-0.0425628 0.246158 -0.0681076 -0.825651 -0.0300847 -0.563379
0.0284461 -0.413671 0.0723282 -0.911056 0.0880232 0.402776
0.0736862 0.252973 0.145223 0.986055 0.0403064 0.161463
0.0417109 0.189935 0.111392 0.208555 -0.719158 0.66281
-0.0241564 0.226565 -0.145384 -0.998963 0.0358492 -0.0280816
0.00202318 0.127505 0.192076 -0.148935 -0.577029 -0.803029
0.0760592 -0.308284 -0.112404 0.918814 0.158908 -0.361289
0.101798 0.25346 0.0544086 0.956829 -0.062324 0.28389
-0.0497731 0.38708 0.013755 -0.935814 -0.322426 -0.142457
-0.0489213 0.0189233 0.00294316 -0.979414 -0.19988 0.0282214
-0.0638289 0.113511 -0.244078 -0.735165 0.0892102 0.671993
0.0622773 -0.0374518 0.0239393 0.866114 -0.306555 -0.394804
0.0707047 0.245793 0.111757 0.965061 -0.261065 0.0223987
-0.0198363 0.48395 -0.00192083 -0.582406 0.656695 -0.479119
0.00397791 -0.359882 0.0474416 -0.944171 -0.076326 0.320491
0.0249018 -0.445555 0.0494192 -0.721592 0.462984 -0.514734
0.0476739 0.0900843 -0.0937852 0.395757 0.115295 -0.911089
-0.0329793 0.222671 -0.0682901 -0.72907 -0.220922 -0.647805
0.0595392 0.196263 -0.0816157 0.657674 -0.0148564 -0.753156
-0.0483737 0.404605 0.00866091 -0.931914 -0.00750966 -0.362601
0.0735645 -0.403936 -0.0864835 0.486275 0.476739 0.732295
0.0215704 -0.0552193 -0.0067582 0.495741 -0.642687 -0.584119
-0.0230003 -0.198637 0.0798733 -0.615537 -0.196778 0.763146
-0.0731994 0.0787667 -0.255031 0.0900736 -0.916913 0.388788
0.0410112 -0.0679364 0.0986751 0.521748 0.0483144 0.851731
-0.0152195 0.25346 -0.14514 -0.606346 0.337762 -0.719903
-0.069792 0.0636765 -0.0367712 -0.962031 -0.0452756 -0.269159
-0.0343483 0.0922748 -0.275719 0.670991 -0.507899 -0.540195
-0.0219355 0.145395 0.226516 -0.923221 0.363446 -0.124779
0.0474305 0.173506 0.105429 0.333476 -0.0581411 0.940964
0.0467916 -0.116006 -0.0361323 0.763555 0.0467617 0.644047
0.0033238 -0.0426847 -0.117637 0.0970657 0.109743 -0.989209
-0.0301499 0.0787058 0.267527 0.463376 -0.830462 -0.309218
0.0524809 0.207581 -0.140029 0.922834 -0.384975 0.0131274
-0.0120782 0.111624 -0.196739 0.0875954 -0.852779 0.514874
-0.0237153 0.109799 -0.203189 -0.233265 -0.808399 0.540443
0.0608474 0.32745 -0.0968276 0.758112 0.485961 -0.434865
-0.0168395 0.103227 -0.082285 -0.534382 0.168533 -0.828271
-0.0412849 -0.118014 -0.0974969 -0.901596 -0.141619 -0.40874
-0.00930205 -0.0117514 -0.111005 -0.148756 0.141383 -0.978715
0.0800752 -0.0133258 0.0482022 0.826003 -0.348452 0.443057
0.0533327 0.208798 0.218362 0.822873 0.268478 0.500799
0.0128388 0.315524 -0.125913 -0.44714 0.439308 -0.77915
0.0598738 -0.248897 0.0862623 0.282501 0.0989263 0.954152
-0.0577746 0.107 -0.244565 -0.439216 -0.10891 0.891756
-0.014611 0.262952 -0.141124 -0.533042 0.364916 -0.76335
-0.0754508 0.0713433 -0.276206 0.91708 -0.39863 0.00768136
0.0974167 0.162675 0.0585463 0.779899 -0.123879 0.613524
0.00626725 -0.448476 0.0700769 -0.56631 0.819735 0.0856046
0.0397638 -0.214579 0.0201287 0.30834 -0.0498118 -0.949971
-0.0682708 0.0656845 0.0271947 -0.877996 0.175891 0.44518
0.0437188 -0.404422 -0.0813723 -0.26771 -0.23373 0.93472
0.0857948 -0.386898 -0.104312 0.981822 0.0210427 0.188636
-0.00652206 -0.261066 0.0751272 -0.73812 -0.444733 0.507337
-0.0286439 -0.482551 -0.135526 -0.194203 -0.948093 0.251804
-0.0310018 0.468373 -0.00147208 -0.759135 0.501961 -0.414426
0.0592045 -0.41002 0.0398357 0.172488 -0.691891 -0.701095
0.0615472 -0.426328 0.0934423 0.111861 0.292565 0.94968
0.0672363 -0.377893 0.083159 0.107436 0.0869295 0.990404
-0.0126791 -0.191822 -0.118854 -0.28323 -0.053639 -0.957551
0.0870118 -0.413428 -0.0888565 0.82036 0.160129 0.54897
0.00781887 -0.195229 -0.0489407 -0.528277 -0.355992 0.770839
-0.0281115 0.166691 -0.164977 -0.89555 -0.0267902 0.444155
-0.0427757 0.1056 0.233939 -0.683509 -0.418754 -0.59788
-0.0513552 0.174601 0.0482935 -0.926938 0.074202 0.367804
0.0921838 0.119717 0.0607672 0.790585 -0.0332281 0.611451
0.0230307 -0.303659 0.0255061 -0.195115 -0.190983 -0.962006
0.00219812 -0.326781 -0.0782691 -0.798446 -0.0550981 0.59954
0.0168548 -0.444095 0.0739711 -0.675286 0.736298 0.0430685
-0.0359304 0.16012 -0.197104 -0.988099 0.143339 0.0558087
0.096504 0.288264 0.0598849 0.948496 0.158961 0.274021
0.0938876 0.157686 0.0642355 0.772624 -0.0565922 0.632336
0.013067 -0.174541 -0.0371363 -0.289066 -0.266441 0.919484
0.0176761 0.183728 -0.227771 0.616741 0.226529 -0.753867
0.0912103 -0.440688 0.0837675 0.683087 0.182365 0.707202
0.0170829 -0.236484 0.0967889 -0.186559 -0.126813 0.974225
0.0481303 -0.015638 -0.0904386 0.645798 -0.134517 -0.751565
0.0682708 -0.198637 0.0473808 0.988601 0.111445 -0.101233
0.0247649 -0.254981 0.0240382 -0.104527 -0.00881426 -0.994483
-0.0199884 -0.22687 -0.105407 -0.848951 -0.309573 -0.428307
0.0210684 0.332805 0.123683 -0.458447 0.785796 0.415151
0.0692444 -0.0402812 0.0691337 0.928926 -0.26064 0.262989
0.107335 0.158659 0.0254757 0.99305 -0.00598324 0.117538
-0.0231372 -0.485228 0.0956328 0.198595 -0.706949 0.678811
