ply
format ascii 1.0
element vertex 815
property float x
property float y
property float z
property float nx
property float ny
property float nz
element face 0
property list uchar int vertex_indices
end_header
0.0283162 -0.273345 -0.0611819 -0.0202571 -0.0973223 0.995047
0.0158826 -0.281371 0.0891165 -0.252557 -0.402812 0.879749
-0.0284561 0.151406 0.221661 -0.920536 0.217872 -0.32426
0.0957894 0.15931 0.0674108 0.837029 -0.0949411 0.538858
-0.01926 0.1677 0.214 -0.93468 0.349566 -0.0646245
0.00663335 -0.385704 -0.128792 -0.398139 -0.91146 0.103569
4.02916e-05 -0.265563 0.0865629 -0.601478 -0.365892 0.710174
0.0057745 0.472553 -0.016144 -0.0657966 0.594198 -0.801623
-0.050557 -0.00125058 -0.0451002 -0.991937 0.0698368 0.105749
-0.0417409 0.118999 0.312132 0.654382 0.139751 0.743138
0.0524388 -0.322958 -0.133534 0.296395 0.138455 -0.944976
0.064234 -0.452828 0.0960477 0.243442 0.0866996 0.966033
0.0712261 0.333199 -0.0678091 0.698047 0.600014 -0.390787
0.0438659 -0.477391 -0.140222 0.178887 -0.962666 -0.20316
-0.0125947 0.163323 -0.262796 0.531675 0.365074 -0.764227
0.0353235 -0.436533 0.0861373 -0.648121 0.0723528 0.758093
0.0510404 -0.451612 0.0969597 -0.149787 0.125986 0.980659
0.0616196 0.296718 -0.119064 0.752012 0.369451 -0.545879
0.024197 -0.392027 -0.136817 -0.442674 0.45002 -0.775578
0.00191182 0.225582 -0.194699 -0.698069 0.511947 -0.500609
0.0729893 -0.415861 0.075862 0.293627 0.21164 0.932197
-0.00312135 -0.138247 -0.117605 -0.108515 0.0676839 -0.991788
-0.00963075 -0.259969 0.0801788 -0.648408 -0.356266 0.672786
-0.0190776 -0.202452 0.0844957 -0.523549 -0.084781 0.847767
-0.052077 -0.0797571 -0.0895756 -0.977904 -0.00887669 -0.208866
-0.0761539 0.100516 0.276625 -0.496352 -0.00464155 -0.868109
0.0782789 -0.278452 0.0496571 0.899421 0.183367 -0.396759
-0.030052 0.256347 0.0826716 -0.82162 0.307767 0.479813
0.0597652 0.197127 0.177642 0.960787 -0.273968 -0.0427707
-0.00871874 0.212328 -0.185579 -0.832542 0.464852 -0.301306
0.00116321 -0.263617 -0.0754091 -0.620591 -0.474411 0.624341
0.0328003 -0.45453 -0.157854 0.086732 0.0287901 -0.995816
-0.0417409 0.438991 0.017127 -0.935046 0.286694 -0.208557
0.031797 0.169889 -0.211845 0.883343 -0.267162 -0.385136
0.0923237 0.328821 -0.0152168 0.891955 0.447964 -0.0611857
-0.0356913 0.202721 0.0738252 -0.864506 -0.0708974 0.497598
0.0794341 -0.406376 -0.115781 0.904188 0.108536 -0.413115
0.0594004 0.225339 -0.161624 0.953385 -0.04606 -0.29822
-0.0150496 0.316661 -0.007784 -0.916222 0.391407 -0.0856635
-0.0354177 -0.02262 0.0878397 -0.729801 0.141418 0.668874
-0.051013 0.1525 0.301674 -0.112295 0.841074 0.529136
-0.0502834 0.25051 -0.0284409 -0.961612 0.26833 -0.0574507
0.053594 -0.429967 -0.144478 0.285489 0.114371 -0.951533
0.0813189 0.154932 0.0812732 0.570005 -0.0726466 0.818423
0.000965621 -0.365032 0.0374666 -0.925332 -0.0755798 -0.371549
0.00666374 -0.285505 -0.0788748 -0.555168 0.118662 0.82323
-0.0352657 -0.109124 0.0532139 -0.957895 -0.187314 -0.217604
0.0795557 0.261454 -0.0610603 0.861017 -0.139022 -0.489207
-0.0231664 0.13122 -0.269362 0.53582 0.0939537 -0.839089
-0.020552 0.159918 0.192234 -0.882413 -0.263259 -0.389924
0.016217 -0.329525 -0.123685 -0.733004 -0.166491 -0.659535
0.0720773 0.141678 -0.0642827 0.576079 0.138678 -0.805544
-0.061957 0.134503 -0.0232121 -0.991886 0.0347672 -0.122286
-0.0341105 0.282126 0.0442155 -0.917891 0.346258 0.19386
0.0793125 0.21099 -0.0606955 0.744216 -0.150612 -0.650737
0.0782181 0.0704197 -0.0751051 0.58192 0.0756228 -0.809722
-0.00701251 0.334415 0.0568011 -0.694235 -0.167416 0.700007
-0.0113332 0.288936 -0.0931628 -0.864565 0.360221 -0.350382
0.0180866 -0.132897 0.0109406 0.0466431 -0.201823 -0.978311
0.0118241 0.0754053 0.104925 -0.381572 0.0961844 0.919321
0.0518612 -0.466933 0.0957437 0.361174 -0.106712 0.926372
0.026173 -0.128519 0.0101236 0.206014 -0.137385 -0.968857
0.0221146 -0.371112 -0.0757739 -0.403494 -0.678389 0.613988
0.0697668 0.239688 0.121705 0.951953 -0.287623 0.105155
0.00611271 -0.120311 -0.123198 -0.0063709 -0.0448857 -0.998972
-0.0886179 0.0710277 0.285623 -0.0511331 -0.254296 -0.965774
0.0566036 -0.194305 0.0304442 0.850759 0.0153363 -0.525332
-0.0399169 0.130247 -0.280793 0.599241 0.24124 -0.763357
-0.0233184 -0.224827 -0.11347 -0.439117 -0.120006 -0.890379
0.0553268 0.371624 -0.00386239 0.670925 0.646116 -0.36386
0.0482435 -0.355547 -0.139979 -0.0882864 0.00502966 -0.996082
0.0273586 -0.292801 0.0808476 -0.120687 -0.102819 0.987351
-0.053597 -0.478121 -0.161624 -0.824862 0.137741 -0.548297
0.0609508 0.330037 0.116112 0.720895 0.574349 0.387857
0.0403091 0.208801 0.244522 0.474373 0.397669 0.785385
0.0562084 -0.234311 -0.104836 0.927689 0.131944 -0.349261
-0.0228016 -0.46134 0.0900893 -0.442404 0.730732 0.519913
-0.0465746 0.156513 -0.268633 -0.0693935 0.804863 -0.589389
-0.0174968 0.297691 0.0677452 -0.841474 0.374451 0.389497
0.07153 0.325416 -0.0745579 0.822128 0.446395 -0.353322
-0.0715939 0.0830662 0.00634827 -0.97549 0.131302 0.176575
0.056026 0.270209 0.180682 0.703567 0.448236 0.551432
-0.0529282 -0.0149895 -0.0750443 -0.971538 0.13029 -0.197833
0.0618628 -0.173876 0.0507211 0.991112 -0.0544236 -0.121387
0.0217954 -0.356277 0.0582299 -0.897112 0.407012 0.171846
0.0727461 0.331496 0.0934941 0.771757 0.495792 0.398223
0.0419203 -0.058021 -0.0213273 0.830845 -0.262571 0.490666
0.108801 0.0278747 0.023741 0.974938 -0.18381 0.125336
0.107341 0.0457043 0.0282554 0.988544 0.00273727 0.150909
0.0282858 0.470364 -0.0174209 0.235692 0.453045 -0.859767
0.0895878 0.0647652 -0.0668363 0.727243 0.0380152 -0.685327
-0.0184088 0.194695 -0.231666 -0.588073 0.805118 -0.0771657
0.0690373 -0.0329712 0.0586555 0.693094 -0.216751 0.687488
0.0514659 -0.262888 0.0884477 0.263607 0.0506785 0.963298
-0.00406755 -0.276264 0.0489275 -0.962539 -0.22832 -0.14625
-0.0392481 0.274101 -0.0471978 -0.896827 0.412153 -0.16072
0.061802 -0.434101 -0.14387 0.475715 0.0383338 -0.878764
0.0866693 0.214881 0.07647 0.590727 -0.0840643 0.80248
0.0175698 -0.289397 -0.0674443 -0.531029 0.152883 0.833448
-0.015346 -0.342171 -0.10435 -0.601652 -0.0714872 -0.795553
0.0582451 0.36068 0.0519067 0.75343 0.588533 0.29321
0.0379075 0.249781 0.210231 0.234078 0.614109 0.75371
0.00838893 0.263886 0.177885 -0.678015 0.487214 0.55038
0.0594308 -0.365762 -0.0772332 0.528249 -0.163044 0.833289
0.0835077 0.250753 0.0892381 0.851543 -0.14569 0.503636
-0.025644 -0.48566 0.0790236 -0.0964069 -0.984661 -0.145425
-0.0361169 0.342683 0.0318882 -0.978241 0.124414 0.16603
0.0930534 -0.446991 -0.108728 0.985927 0.152594 0.0682908
0.0391843 0.244309 -0.184606 0.423706 0.659498 -0.620915
0.0562692 -0.364302 -0.14083 -0.0446257 0.130123 -0.990493
-0.0395521 -0.210721 -0.108849 -0.683319 -0.228291 -0.693511
-0.0661218 0.049018 -0.0358889 -0.880826 -0.433282 -0.190819
0.0982822 0.288206 0.038105 0.977423 0.209249 0.0293231
0.0049081 -0.13545 0.103709 0.00682947 -0.0306963 0.999505
0.0759076 -0.0367105 0.0574091 0.717813 -0.207452 0.664611
-0.0026368 -0.134356 0.0993917 -0.328642 0.0167137 0.944306
0.0535027 0.370652 0.0459483 0.759874 0.540292 0.361491
0.0542324 -0.0264504 -0.0181049 0.487766 -0.818121 0.304569
0.107402 0.226798 0.0476507 0.994936 0.0316514 0.0953972
0.0138001 -0.225799 -0.126725 -0.0376134 0.213852 -0.976142
-0.0136816 0.0754053 -0.0933452 -0.411472 0.2416 -0.878818
0.0951206 -0.443343 0.0477115 0.924453 0.173112 -0.339733
0.0144537 0.129761 0.262154 0.679971 -0.519682 0.517273
0.0324962 -0.449909 0.0432731 -0.491191 0.363139 -0.791746
0.0609508 0.205275 0.123955 0.771617 -0.623989 0.123468
0.106004 0.201262 0.0549771 0.939056 -0.0833051 0.333517
-0.051925 -0.018592 -0.0547978 -0.990277 -0.037473 0.133968
0.0195914 0.176455 -0.232882 0.75153 0.0212427 -0.659356
-0.0697091 0.0647652 0.0260438 -0.911737 0.158107 0.379128
-0.0186216 0.447746 -0.0129672 -0.462907 0.15221 -0.873241
0.100653 0.0654949 0.0508123 0.883166 -0.0478655 0.466611
0.00277632 0.21938 -0.196888 -0.704027 0.616968 -0.351705
-0.0495233 0.0400196 0.0620907 -0.897542 -0.0475081 0.438361
-0.0174664 0.241633 -0.0871436 -0.890726 -0.02038 -0.454083
0.0128501 0.297934 0.156848 -0.651627 0.403441 0.642353
0.103633 0.226676 0.066134 0.760823 -0.0565848 0.646488
-0.0701347 0.0842821 -0.0174209 -0.991085 0.071593 -0.112359
-0.0468481 0.120519 -0.226072 -0.769666 -0.445839 0.456993
0.0521044 0.20114 -0.172082 0.95621 -0.258799 -0.136692
-0.0111127 0.3242 -0.00445519 -0.827998 0.0680902 -0.556582
-0.0222088 0.13657 -0.196888 -0.804081 -0.348918 0.481362
-0.00275748 -0.354331 -0.111646 -0.337969 0.0166979 -0.941009
0.05557 0.413455 -0.00404478 0.730211 -0.319571 -0.603876
0.0554787 0.207585 -0.159192 0.969375 -0.224025 -0.100624
0.0601908 -0.305205 -0.081246 0.725177 -0.0437735 0.68717
0.0239538 0.290152 -0.13171 -0.345712 0.540155 -0.767278
0.0344722 0.190561 0.122739 0.120085 -0.850378 0.512287
-0.0284864 0.00324676 0.0850429 -0.768312 0.109451 0.630648
0.0177674 0.310338 0.154902 -0.56004 0.477833 0.676779
-0.0329553 0.169281 -0.198955 -0.99924 0.0272231 -0.0279015
-0.0313593 0.474742 0.0318578 -0.745559 0.595512 0.299179
0.0585492 0.218164 -0.0813068 0.704412 -0.114919 -0.700427
0.086487 0.175118 -0.047745 0.738391 0.0162472 -0.674177
-0.0460881 0.0343651 0.0209555 -0.833504 -0.543983 -0.0967101
0.00900452 -0.468393 -0.17269 0.406489 -0.0941699 -0.90879
0.0575156 -0.479823 -0.101067 0.126688 -0.86364 0.487931
0.0243034 -0.453557 0.0458267 -0.532651 0.470551 -0.703466
0.0687332 -0.0356769 -0.0492042 0.732512 -0.680564 0.0160658
-0.0248689 -0.471311 0.0573179 -0.718832 0.0392994 -0.694072
0.0791301 -0.425589 -0.134872 0.637422 0.213326 -0.740396
0.0295474 -0.414159 0.0622427 -0.940777 -0.21214 -0.264453
0.0713477 -0.342414 -0.119793 0.903031 0.190087 -0.38523
-0.0103072 0.192628 0.196368 -0.863747 0.360716 0.351887
-0.048429 0.238229 0.0232393 -0.978019 0.20328 0.0464311
-0.01679 -0.128033 -0.0360105 -0.56934 -0.158995 0.806581
0.0378467 0.176334 -0.203333 0.90157 -0.272882 -0.335718
0.104484 0.229473 0.0645228 0.76965 -0.132828 0.624497
0.0183602 -0.403458 -0.114078 -0.856069 0.226716 0.464484
-0.0178768 -0.155636 -0.118699 -0.267373 0.0756498 -0.960619
-0.00852496 0.415157 0.0623947 -0.281383 -0.128615 0.950937
0.101444 -0.466447 0.0642492 0.979294 0.0226752 0.201171
0.0201842 0.419535 -0.0212969 0.0837997 -0.249722 -0.964685
-0.0482161 0.206369 0.0507515 -0.929712 0.0037378 0.368268
-0.00342439 -0.194305 0.0308394 -0.602206 -0.237693 -0.762135
0.100045 -0.457205 0.0674412 0.956573 -0.123554 0.264013
-0.0164404 -0.473257 -0.175122 -0.00494069 0.265264 -0.964163
-0.0386401 -0.121284 -0.107694 -0.421268 0.202741 -0.883985
0.0536243 -0.128641 0.0247974 0.857192 0.0254078 -0.51437
0.0104334 0.0574388 -0.107329 -0.197914 0.270358 -0.942198
-0.0480642 0.148244 0.274922 -0.596945 0.799135 -0.0709866
-0.0473041 0.242363 0.00458886 -0.972873 0.211657 0.0933819
0.0353842 0.250753 0.209987 0.11783 0.700557 0.703801
0.056482 -0.303745 0.0889341 0.242197 0.0571891 0.96854
0.0262186 -0.42486 0.0512683 -0.87095 -0.0782298 -0.485104
-0.0306145 0.164417 0.264221 -0.657062 0.745091 -0.114492
-0.0226648 -0.0848643 -0.0374698 -0.668348 -0.0625661 0.741213
-0.10242 0.0879302 0.292433 -0.520447 0.246946 -0.817406
0.0025597 -0.0575649 -0.119307 0.130699 -0.0245555 -0.991118
-0.0463921 0.239566 0.0501739 -0.965515 0.163381 0.2027
0.0275258 -0.248539 -0.0561962 0.317181 0.033521 0.947773
0.0026433 0.0747365 0.102553 -0.477177 0.0858175 0.874607
0.067274 0.23908 -0.114808 0.94845 -0.308896 -0.0708925
-0.0153764 -0.228596 -0.114443 -0.350165 -0.132443 -0.927277
-0.00145831 -0.219111 -0.0572907 -0.353699 -0.346827 0.868682
0.012835 -0.0578689 -0.000381567 0.380994 -0.515388 -0.767606
-0.00464515 0.244673 0.16232 -0.896146 0.321537 0.305836
0.105761 0.251483 -0.0289881 0.878876 0.0657054 -0.472503
-0.00810695 -0.145057 0.0220537 -0.580421 -0.054678 -0.812479
0.0483956 0.158823 -0.0834348 0.494321 -0.0612424 -0.867119
-0.0488241 0.00534058 -0.00214477 -0.997033 -0.0760487 -0.0119341
0.0494595 0.474012 -0.00322398 0.65355 0.604069 -0.45604
-0.0405249 0.104164 0.25352 -0.116189 -0.926852 -0.356995
0.106004 0.277262 0.00273445 0.976394 0.134388 0.169098
0.027693 -0.367707 0.0367218 -0.156019 0.434737 -0.88694
0.0656932 0.0733989 0.0853469 0.582757 -0.0792834 0.80877
-0.0209168 0.201262 -0.0696331 -0.538333 -0.167625 -0.825893
0.0832037 0.238107 -0.0613035 0.741019 -0.0850283 -0.666078
0.07153 -0.0209024 -0.00361918 0.29412 -0.952758 -0.0758037
0.106794 0.0646436 0.032937 0.990287 0.0162378 0.138089
-0.0264648 0.0645829 -0.087934 -0.535812 0.199655 -0.820392
0.0478483 0.354357 0.0915485 0.135101 0.931199 0.338551
0.0207314 0.05449 -0.107451 0.158238 0.110138 -0.981239
-0.00619172 0.0687173 0.0967165 -0.528251 0.0944456 0.843819
-0.012572 0.130369 0.291217 0.561545 -0.228271 0.795336
0.0895269 -0.0068499 0.0334386 0.921843 -0.282053 0.265805
0.0125993 0.482767 0.0525147 -0.0828667 0.731978 0.67627
-0.0661218 0.0915174 -0.300249 0.646945 -0.636887 -0.41933
-0.0028487 0.192142 0.25425 -0.631206 0.702904 0.327879
0.0801637 -0.311041 0.0668332 0.919559 0.109477 0.377395
0.0670917 0.228257 0.179709 0.969899 -0.0946078 0.224379
-0.0208256 -0.065773 -0.10739 -0.384891 -0.050713 -0.921568
0.0698276 0.354843 -0.00155197 0.758323 0.647976 -0.0712299
-0.00930395 0.160526 -0.0724907 -0.289039 0.041338 -0.956424
0.0990118 0.107204 0.0550987 0.886677 -0.016437 0.462098
0.0706789 -0.396891 -0.0854412 0.616506 0.147826 0.773348
0.0547492 0.254158 0.196003 0.62834 0.466233 0.622748
0.0580932 0.167335 0.104681 0.581261 0.0804615 0.809729
-0.0439601 0.0131154 0.0550075 -0.9561 -0.161822 0.24431
-0.107892 0.094983 0.299486 -0.815439 0.467998 -0.340643
0.0120902 0.0647652 0.105472 -0.256818 0.0237064 0.966169
-0.0152472 0.161985 -0.0701803 -0.262493 0.0103738 -0.964878
-0.0356913 0.0803301 -0.0797868 -0.596861 0.284907 -0.750057
0.0470579 -0.0177331 0.0847389 0.656928 -0.118977 0.744507
0.0614372 -0.406133 -0.133048 0.676407 -0.0879847 -0.731254
0.020777 -0.405647 0.0680796 -0.954563 -0.281541 0.097693
0.0139977 0.240661 0.209258 -0.60445 0.596225 0.528352
-0.0107023 0.325659 0.0519675 -0.876345 0.0460036 0.479483
0.0407347 -0.22203 0.0249798 0.249971 -0.0290031 -0.967819
-0.0182264 -0.0855331 0.0239994 -0.674908 -0.206506 -0.708417
-0.0236832 0.139854 -0.0703627 -0.358266 0.0951441 -0.928759
0.0336818 -0.241121 0.0955005 0.440386 -0.0404706 0.896896
0.0531683 0.448962 -0.0129672 0.585991 0.207479 -0.783305
0.00087631 0.184724 0.109849 -0.388113 -0.269626 0.881289
-0.0261304 0.106292 -0.265471 0.765658 -0.637818 -0.0834044
0.00763651 0.304014 -0.11347 -0.645635 0.556443 -0.522998
0.020169 -0.144935 0.0111496 -0.0131363 -0.279909 -0.959937
0.0259298 0.241512 0.219959 -0.372919 0.679803 0.631505
0.0697668 0.35533 0.00445966 0.793977 0.603947 -0.0696391
-0.020324 -0.277236 -0.09675 0.114646 -0.241389 -0.963632
0.0414947 0.433154 0.0663164 0.436458 -0.0671289 0.897217
0.0578196 0.190561 0.175088 0.944403 -0.321677 -0.0680257
0.0213242 -0.18859 -0.125387 0.238899 -0.101506 -0.965724
0.102964 0.0640965 -0.0477146 0.945893 0.0700868 -0.31682
-0.01147 0.118026 -0.203941 -0.356732 -0.898374 0.256257
-0.00180689 -0.377922 -0.11955 -0.882662 -0.435116 -0.177712
-0.0412241 0.41078 0.0424978 -0.794146 -0.0845689 0.601814
0.0385459 0.401295 -0.00615759 0.471687 -0.0760187 -0.878483
-0.0321192 0.156148 0.0833405 -0.720875 0.0161348 0.692877
0.0496115 -0.100247 0.0617259 0.960855 -0.0689916 0.268322
0.0398531 0.188615 0.140797 -0.023808 -0.940125 -0.339996
0.0195458 -0.0644962 -0.0127392 0.369638 -0.568915 -0.734645
0.051618 0.247105 0.204151 0.622432 0.452383 0.638693
0.0390019 -0.202938 0.0184513 0.35781 -0.156388 -0.920606
0.05633 -0.228475 -0.079422 0.843503 0.181486 0.505534
0.101444 -0.466204 0.063246 0.997989 -0.054219 0.0328518
0.0821701 -0.0162055 -0.0194425 0.574806 -0.806929 0.135884
-0.0390961 0.119486 0.228592 -0.641363 -0.50037 -0.581622
0.0158978 -0.159284 0.103526 0.127441 -0.13541 0.982559
-0.0112723 -0.314689 0.0492315 -0.937856 -0.334165 -0.0935911
0.0399443 0.15019 0.111187 0.189408 -0.0430164 0.980956
-0.0942116 0.0945574 0.329156 -0.540579 0.303817 0.784518
0.00907297 -0.456719 0.0937981 0.00326172 0.55791 0.829895
0.109165 0.187764 0.0321922 0.998721 -0.0109411 0.0493711
0.0121282 -0.389839 0.0459787 -0.908979 -0.416676 -0.0117409
0.0869125 0.175118 0.0774428 0.561143 -0.0292432 0.827202
0.0420723 -0.0966595 0.0951357 0.662804 -0.0158078 0.748626
-0.0246104 -0.0353424 -0.0080728 -0.813536 -0.523967 -0.252225
-0.0443553 0.0231322 -0.079118 -0.80789 0.121178 -0.57674
0.050098 0.319336 0.146147 0.467009 0.63591 0.614428
-0.0177248 0.328091 0.0334842 -0.934631 -0.240488 0.261972
-0.0364209 -0.153933 -0.110917 -0.605435 0.0564413 -0.793891
0.00475231 0.216219 -0.203211 -0.576259 0.690997 -0.436404
0.0607684 0.417346 0.00140444 0.832035 -0.374302 -0.409409
-0.029672 0.294286 0.0333778 -0.871352 0.490349 -0.0174499
0.0148034 -0.282344 -0.0690859 -0.676936 -0.124127 0.7255
0.0282706 -0.478607 -0.145086 0.202744 -0.968075 -0.147396
0.0877029 0.320309 0.0695084 0.898146 0.393623 0.195944
-0.0498273 0.108237 0.262154 -0.455611 -0.671413 -0.584485
-0.00747994 -0.446261 -0.132683 -0.741362 0.638951 0.205243
0.0122345 0.275317 -0.136574 -0.443459 0.653243 -0.613691
0.0192418 -0.177889 0.100729 -0.0533978 -0.0993529 0.993618
0.0489732 -0.385704 -0.0845292 -0.0828099 -0.308623 0.947573
-0.0342929 -0.459637 -0.165394 -0.720318 0.375885 -0.582969
0.102781 0.114378 -0.0227865 0.968777 0.106459 -0.223915
-0.0255681 -0.0800611 -0.104897 -0.392117 -0.00185422 -0.919913
0.0383939 -0.191022 -0.115781 0.794483 0.318906 -0.516813
-0.0291705 0.053578 -0.0903052 -0.626324 0.213704 -0.749699
0.0030955 0.206369 0.126873 -0.433533 -0.895545 0.100244
-0.0028487 0.192142 0.25425 -0.631206 0.702904 0.327879
0.015001 0.0893894 0.106384 -0.279544 0.0460107 0.95903
0.0516483 -0.239054 0.0845565 0.466248 0.155144 0.870944
0.0569683 -0.0319528 -0.0319977 0.585665 -0.730702 0.350813
0.00444455 -0.341442 0.0467995 -0.081101 0.415946 -0.905766
0.0425891 -0.270913 0.0884477 0.0212995 -0.102959 0.994458
0.0633828 -0.356277 -0.0786924 0.628756 -0.0243459 0.777221
-0.0400081 -0.191022 -0.110613 -0.644359 -0.0366177 -0.763846
-0.019488 -0.478364 -0.12028 -0.578137 -0.387479 0.718065
-0.0296113 0.0152738 -0.0972364 -0.464212 0.191783 -0.864711
0.0342899 -0.4127 0.0480155 -0.5382 -0.753755 -0.377086
-0.0383969 0.338792 0.0181739 -0.981292 0.00799797 -0.192359
-0.051773 -0.0735554 -0.0905484 -0.973087 -0.0657843 -0.220848
-0.024352 0.184603 -0.252824 -0.187212 0.654861 -0.732195
-0.0780995 0.0911526 -0.307301 0.620747 -0.425624 -0.65842
-0.0273009 0.152865 -0.182296 -0.857205 -0.425909 0.289484
-0.0197616 0.0348515 0.0938589 -0.605215 0.0981112 0.789993
-0.0267689 -0.213153 -0.0694507 -0.581201 -0.252609 0.773559
-0.0527154 -0.0160839 -0.0765643 -0.971538 0.13029 -0.197833
0.0999846 0.310824 -0.0139704 0.951284 0.305167 -0.0439601
-0.0410721 0.407618 0.00100164 -0.738041 -0.0327877 -0.673958
-0.0183784 0.180468 0.187613 -0.84717 0.426929 -0.316281
-0.0501314 0.0379827 -0.0074648 -0.659364 -0.750139 -0.0503016
0.108071 0.152986 0.0253522 0.999977 0.00462678 0.00491545
0.110503 0.224123 -0.0178313 0.993248 0.00685363 -0.115809
-0.0560594 0.109575 0.325751 0.468366 0.000401385 0.883534
0.0494292 0.00862379 -0.0871436 0.499371 -0.192252 -0.844788
0.0256562 -0.108759 -0.0921292 0.894142 0.100615 -0.436334
0.00981016 -0.329038 0.0591115 -0.638404 -0.670494 0.377992
0.0239842 -0.410754 -0.143262 -0.684674 0.0909339 -0.723155
-0.0221024 0.146542 -0.182296 -0.799427 -0.378011 0.46693
-0.0539314 0.0596884 -0.0630667 -0.818466 0.0458064 -0.572726
-0.00540511 -0.0263592 -0.116145 0.0961326 0.13736 -0.985845
0.000384214 0.314715 0.0842525 -0.842333 0.431396 0.323068
0.0558436 -0.360168 0.0343658 -0.00342391 -0.100184 -0.994963
0.0756037 0.271182 0.128637 0.982516 0.0738615 0.170901
0.0138761 -0.414888 -0.117118 -0.970854 0.213908 0.108103
0.0193786 -0.0148983 0.10152 0.404618 0.0167363 0.914333
0.0893445 -0.347278 0.0452795 0.895031 0.0672885 -0.440899
0.0145602 0.280424 0.172291 -0.668083 0.478991 0.569414
0.00498035 0.0357027 -0.11116 -0.044017 0.000207396 -0.999031
0.0608292 -0.288424 -0.118456 0.85508 0.14987 -0.496365
-0.017436 0.209531 0.164509 -0.975489 -0.134652 -0.174039
0.0495811 0.221083 0.227376 0.64383 0.507956 0.572245
-0.0473953 -0.0533089 -0.0563178 -0.861031 -0.251575 0.441969
-0.010748 0.289666 -0.0825228 -0.879284 0.292824 -0.375651
0.0429843 0.378191 0.0561931 0.501551 0.497207 0.707977
0.0104334 0.29453 0.153565 -0.768872 0.324975 0.55066
-0.0181352 0.244552 -0.122955 -0.977231 -0.0866173 0.193691
0.00816096 0.455286 0.06963 -0.168521 0.281382 0.944683
-0.0192448 0.0438804 -0.101979 -0.521701 0.146405 -0.840472
0.0219626 -0.228839 -0.126603 0.0734745 0.270615 -0.95988
-0.0727491 0.0461604 0.0304746 -0.912561 -0.403679 0.0653853
-0.00278885 -0.254619 0.0859549 -0.599382 -0.249881 0.760461
0.0680644 -0.269211 0.0340466 0.694609 0.0984621 -0.712617
0.00513994 -0.370383 0.0521803 -0.935055 -0.0299106 0.35324
0.0529555 0.175604 0.205245 0.923527 -0.381938 0.0349326
0.0462675 -0.11721 0.0895421 0.807348 -0.0813167 0.584446
0.0388803 -0.00367497 -0.0938316 0.509329 -0.154062 -0.846669
-0.00944839 -0.485417 0.0607531 -0.246462 -0.731 -0.636314
-0.053901 0.230324 -0.0158248 -0.979275 0.192088 0.0642089
0.0690373 0.116142 0.0872925 0.677311 0.0163795 0.735515
-0.0261 -0.161837 -0.052913 -0.707681 -0.228258 0.668645
0.0234826 -0.430696 0.0709068 -0.855871 0.206103 0.474348
0.057394 0.454313 -0.0077384 0.75899 0.242819 -0.60413
0.0667268 -0.44918 -0.143141 0.420364 0.0169186 -0.907198
0.0852709 0.307662 -0.055953 0.880509 0.224643 -0.417419
-0.013142 0.022433 -0.102891 -0.438751 0.0614647 -0.896504
-0.00787517 -0.343874 -0.108485 -0.623429 -0.0549743 -0.779945
-0.0384273 0.248321 0.0689308 -0.915173 0.214835 0.341034
0.0639908 -0.310312 0.0874141 0.544771 0.0872731 0.834031
0.0274042 0.272155 0.188221 -0.27887 0.560015 0.780138
-0.0255681 -0.243431 -0.0799084 -0.768171 -0.395477 0.503499
0.0508579 0.0312339 0.0947101 0.522015 -0.0964256 0.847469
-0.02762 0.180468 -0.211237 -0.8817 0.466182 0.0726635
-0.00635131 -0.232852 -0.11724 -0.276817 -0.116166 -0.953875
0.0510404 -0.451612 0.0969597 -0.149787 0.125986 0.980659
0.0198954 -0.44845 -0.156274 0.242686 0.467958 -0.849776
0.0476964 -0.220571 -0.107633 0.786785 0.255377 -0.561918
0.107159 0.168551 0.0176191 0.999494 -0.00530958 -0.0313546
-0.0674594 0.0947398 -0.284197 0.401196 -0.844751 -0.354171
0.0333475 -0.197953 -0.0505418 0.629935 -0.0722458 0.773281
-0.0339281 0.163566 -0.183877 -0.963158 -0.216401 0.15968
0.0438659 -0.0505121 0.00803547 0.669922 -0.311927 -0.673726
0.0875813 -0.465231 0.0820636 0.682641 -0.030255 0.730128
-0.00763953 0.221083 0.184087 -0.879051 0.298042 0.372075
0.0494595 0.474012 -0.00322398 0.65355 0.604069 -0.45604
0.0149097 -0.113927 -0.119307 0.543332 -0.0825487 -0.83545
-0.0190776 -0.0675362 -0.0337305 -0.689995 -0.252022 0.678522
0.0322227 0.139489 0.227863 0.813479 -0.580958 -0.0271987
-0.0577314 0.171713 0.0258462 -0.973117 0.122382 0.195106
0.0782789 -0.376219 0.036585 0.521813 0.165492 -0.836853
0.102052 0.0547028 -0.0505418 0.880927 0.0634116 -0.468984
0.0490035 0.28091 0.179587 0.349817 0.531483 0.771463
-0.0388225 -0.469852 -0.132197 -0.641635 -0.457574 0.615573
-0.0425921 -0.0629154 0.0505083 -0.961259 -0.145471 -0.234134
0.0506147 -0.233825 -0.11347 0.67255 0.246013 -0.697964
0.0555092 -0.0585986 0.0590811 0.976087 -0.106615 0.18944
-0.0233488 0.119607 0.0885693 -0.616562 -0.0672544 0.784429
-0.0295049 0.136814 0.213636 -0.842432 -0.153257 -0.516547
-0.0306145 0.164417 0.264221 -0.657062 0.745091 -0.114492
-0.0173296 0.304987 -0.0659243 -0.791291 0.517265 -0.326031
0.0346547 -0.4538 0.041981 -0.393437 -0.0127051 -0.919264
0.00103019 0.346575 0.0681708 -0.545547 -0.0405626 0.837098
0.016521 -0.478364 -0.162354 0.203819 -0.567155 -0.797993
0.0279818 0.0228586 -0.0992429 0.354377 -0.185202 -0.916579
0.104241 0.018861 0.0386522 0.901013 -0.313882 0.299422
0.0574244 -0.165607 0.0363266 0.935167 0.00649637 -0.354149
-0.0043658 -0.304718 0.068566 -0.836964 0.0179792 0.546963
0.0026851 -0.241607 -0.125144 -0.37124 0.0342655 -0.927904
-0.014434 -0.26386 -0.102222 0.380079 -0.726893 -0.571985
-0.0410721 0.172078 -0.252824 -0.666885 0.673058 -0.319776
-0.0257809 0.37284 0.0358554 -0.837135 -0.347644 0.422313
0.0754821 0.273371 0.128819 0.982516 0.0738615 0.170901
0.109105 0.263643 -0.000989569 0.982801 0.0765994 0.168032
0.0538372 0.177185 0.222026 0.928758 -0.339722 0.148317
0.0265834 -0.130221 0.0105283 0.206014 -0.137385 -0.968857
0.0954854 0.117722 -0.0497514 0.888549 0.160681 -0.429724
0.0175394 0.326389 0.13873 -0.506689 0.728692 0.460733
0.0760901 0.340981 0.0549467 0.776604 0.616701 0.128707
-0.0195792 0.351925 0.0479851 -0.895072 0.113321 0.431282
0.05253 0.173537 0.174845 0.830817 -0.470468 -0.297325
0.0836293 -0.00829391 0.043197 0.91687 -0.192838 0.349517
-0.0443553 0.242728 -0.0576554 -0.883662 0.0662375 -0.463415
-0.048885 0.000900229 0.0250786 -0.997866 -0.0588205 0.028348
0.00780371 -0.351413 -0.0741323 -0.520377 -0.297887 0.800294
0.069098 0.296475 -0.101796 0.860619 0.215398 -0.461453
-0.0296872 0.118148 0.0824284 -0.695452 -0.0961997 0.712104
-0.00869977 -0.353602 -0.088846 -0.874374 -0.234799 0.424664
-0.0823555 0.113041 -0.298303 -0.595105 0.0406166 -0.802621
-0.0372721 0.268507 0.0519675 -0.913241 0.332206 0.235861
0.0976742 0.317391 -0.014168 0.903329 0.427113 -0.0396338
-0.00269954 -0.198196 -0.123563 -0.0924845 -0.10413 -0.990254
0.0788261 -0.0233496 -0.0433978 0.713719 -0.69998 -0.0251345
0.0352627 -0.03098 -0.0858668 0.638789 -0.126956 -0.758835
-0.000948166 -0.325877 -0.0752267 -0.611045 -0.119956 0.782454
0.04873 -0.300341 -0.0720043 0.473554 -0.153423 0.867299
0.00578211 -0.314446 0.075558 -0.561137 -0.337602 0.755744
0.104545 0.235675 0.0255346 0.995785 0.0834338 0.0380981
-0.0415889 -0.0131199 -0.00348238 -0.929382 -0.359172 -0.0851086
0.0210354 -0.149191 -0.0295353 0.264021 -0.284708 0.921539
0.0438659 0.180225 -0.18716 0.925546 -0.311823 -0.214781
0.00230509 0.0650693 0.102736 -0.353833 0.0985872 0.930098
-0.0439297 -0.126573 -0.103316 -0.840013 0.0255231 -0.541966
-0.0880707 0.0715749 -0.293196 0.401486 -0.892088 -0.207335
-0.00158889 0.328091 -0.0517578 -0.690122 0.705725 -0.160262
0.00153751 0.130855 0.278813 0.659223 -0.286518 0.695222
0.0387891 0.0269019 0.101885 0.469357 -0.248917 0.847198
-0.0242304 -0.118791 -0.0405098 -0.619308 -0.122526 0.775529
0.0725636 0.246254 0.155146 0.974258 0.0368047 0.22241
-0.00124884 -0.177159 -0.124414 -0.148589 0.0642673 -0.986808
0.0446563 0.255131 -0.170014 0.467424 0.638921 -0.610978
0.00950613 0.237742 0.205245 -0.775888 0.399842 0.48798
0.031493 0.191291 0.132893 -0.18688 -0.93545 -0.300014
0.0759685 -0.393 -0.103073 0.984218 0.0678196 0.16345
0.00797092 0.20564 0.234429 -0.833872 0.502786 0.227736
0.0441699 0.181441 -0.0878124 0.090248 0.0332235 -0.995365
0.0100001 0.128545 0.207312 0.0849754 -0.818926 -0.567574
0.0594004 -0.0498737 0.0600843 0.882876 -0.371774 0.286904
-0.0109075 -0.29499 0.0463131 -0.995409 0.0255643 -0.0922399
0.07153 -0.473986 -0.137912 0.348396 -0.838678 -0.418616
0.0185578 -0.00416802 0.101641 0.365552 0.00347522 0.930784
0.0984038 0.010995 -0.0066744 0.854391 -0.519244 -0.0200482
0.0017769 0.151406 0.280516 0.606147 -0.0413711 0.794276
-0.0269512 -0.183118 -0.11651 -0.459269 0.0147208 -0.888175
-0.0344753 0.0848902 0.0693868 -0.731302 0.0879683 0.676357
-0.0354785 -0.179105 -0.112619 -0.629697 -0.0119515 -0.776749
0.0683684 0.00440957 -0.0724299 0.568683 -0.281963 -0.77272
0.107706 0.247592 0.00458886 0.979535 0.00922604 0.201063
-0.00964597 0.324443 -0.0208105 -0.905886 0.382688 -0.181442
0.0878245 0.298907 0.0818204 0.912188 0.106837 0.395599
-0.0431393 0.140948 -0.288332 0.440271 0.474828 -0.762037
0.108922 0.050234 -0.0179833 0.994383 0.0412176 -0.0974903
-0.0247473 0.13049 -0.0706059 -0.490979 0.0739366 -0.868029
-0.0315873 0.110122 -0.248204 0.116185 -0.955203 0.272193
0.000826897 -0.189684 -0.125995 -0.0564337 -0.0851123 -0.994772
0.0346243 0.179739 -0.21148 0.890032 -0.0941142 -0.446079
0.0267658 -0.34436 0.0413882 -0.538058 0.342937 -0.769992
0.0358099 -0.462556 -0.161138 0.0681771 -0.0719623 -0.995075
0.0484563 -0.213518 -0.081246 0.915781 0.244183 0.318937
0.00126958 -0.192967 0.0272446 -0.545295 -0.238021 -0.803741
0.0370867 0.237377 -0.192997 0.471218 0.668014 -0.575944
-0.00985117 0.248078 0.113254 -0.92765 0.221131 0.300942
0.0190898 0.19202 -0.230693 0.566476 0.295911 -0.769118
-0.107284 0.0910918 0.32259 -0.874506 -0.216852 0.433838
-0.00628293 -0.373544 -0.10362 -0.793853 -0.592734 0.135881
-0.0106872 0.19275 -0.240178 -0.0419313 0.724788 -0.687695
-0.0407985 -0.197831 -0.109579 -0.587698 -0.0943072 -0.803565
0.0443219 -0.217287 0.024995 0.385069 -0.0604562 -0.920906
-0.0499489 0.215124 0.0425282 -0.975517 0.0757155 0.20648
-0.0100715 0.28091 -0.116997 -0.811221 0.500231 -0.302804
0.0676388 0.424885 0.00972648 0.947334 -0.267091 -0.176694
0.0113454 -0.0626722 0.1076 0.128516 0.0407224 0.990871
0.0132302 -0.269454 0.025831 -0.289867 -0.0477797 -0.955873
0.0836293 -0.421212 -0.128062 0.771935 0.344739 -0.534108
0.0599172 0.22315 0.208163 0.913659 0.17655 0.366139
0.0443523 -0.201358 -0.0870828 0.926012 0.371613 0.0663723
-0.0343537 0.111825 -0.232031 0.0331247 -0.973933 0.224403
0.0976742 0.31812 -0.0111584 0.899672 0.435528 -0.0301064
0.0810757 0.291611 -0.0694507 0.936437 -0.0276194 -0.349746
-0.0498882 0.00128595 -0.0359193 -0.994783 -0.0130532 0.101173
0.0395795 -0.156001 -0.0574122 0.938936 -0.13863 0.31493
-0.0730531 0.0864102 0.296567 0.145007 -0.745605 -0.65042
-0.0372113 -0.0325304 -0.101979 -0.596899 0.0161257 -0.802154
0.00825972 0.325416 0.121766 -0.722344 0.653199 0.227046
0.0453251 0.185575 -0.133656 0.700758 -0.60967 0.37046
0.059674 -0.389109 0.0815772 0.280804 -0.290535 0.914734
-0.0972516 0.105015 0.308241 -0.875396 0.483258 -0.0120045
0.0513139 0.231662 -0.177067 0.847114 0.218096 -0.484594
0.094999 0.12745 0.0629115 0.878066 -0.0619558 0.474512
0.0155482 -0.325633 -0.126238 -0.702769 -0.112259 -0.702505
-0.109594 0.0929158 -0.281522 -0.874503 -0.277813 0.397573
0.089831 0.144353 -0.0552234 0.763515 0.1513 -0.627817
-0.00072164 0.199438 -0.236287 0.0713212 0.624638 -0.777651
-0.0110824 0.215124 -0.123077 -0.884938 -0.323169 0.335331
-0.0629298 0.144353 0.0124269 -0.980867 0.100986 0.166439
-0.0432305 0.117236 0.235767 -0.691219 -0.388546 -0.609302
0.000452592 0.485443 -0.00284398 -0.15957 0.821133 -0.547976
0.0507972 0.373327 -0.0077232 0.630639 0.665974 -0.398464
0.00536791 -0.0163575 0.105958 0.136636 0.0165076 0.990484
-0.0327121 0.153473 -0.224005 -0.850784 0.277802 0.446085
0.0951206 -0.390568 0.0603883 0.94356 0.158968 0.290559
0.0210962 0.383055 -0.0130584 -0.269714 0.230867 -0.934856
0.0636868 -0.0380481 -0.0574122 0.79676 -0.581651 -0.163876
-0.0152168 -0.45453 -0.151774 -0.0409688 0.956292 -0.289528
0.0277994 -0.183482 0.0142875 0.114252 -0.0857671 -0.989743
0.0984038 -0.470581 0.0509643 0.885638 -0.0262564 -0.463632
0.0338035 -0.467906 -0.162962 0.339232 -0.0969722 -0.935691
0.0248658 -0.40516 0.08407 -0.807197 -0.0484242 0.588293
0.0212634 0.340251 -0.0889068 -0.442916 0.851286 -0.281314
0.0471188 -0.305448 0.026249 0.0584699 -0.0471056 -0.997177
0.0361139 -0.364302 -0.131953 -0.359834 0.0493336 -0.931711
0.0663012 0.346575 0.0778684 0.66736 0.699917 0.254453
-0.0473345 0.193358 0.0550987 -0.894088 0.0462499 0.445498
-0.00657554 0.147758 -0.263768 0.562023 0.0257489 -0.826721
-0.0129216 -0.177889 0.0894813 -0.348733 -0.0653002 0.934944
0.0575764 0.0550676 -0.086414 0.535946 0.0661187 -0.841659
-0.0509825 -0.0301896 -0.088542 -0.84199 0.0402529 -0.537989
0.0279514 -0.278209 -0.0609995 -0.264427 -0.0251877 0.964077
0.0547492 -0.0376529 0.07115 0.808276 -0.0587798 0.585862
-0.0608626 0.0410835 -0.00352798 -0.482273 -0.876012 -0.00391386
-0.00237937 -0.143962 0.0968989 -0.377328 -0.110175 0.919503
-0.105642 0.0876261 0.294135 -0.669129 0.282095 -0.687524
-0.00214425 0.279694 -0.133534 -0.48442 0.542405 -0.686392
0.0167794 0.199195 -0.0883596 -0.00754004 -0.622684 -0.782437
-0.0365425 -0.127911 -0.109397 -0.433516 0.108249 -0.894621
0.0827781 -0.438479 0.0852861 0.547569 0.277246 0.789496
0.0417379 -0.486389 0.0978717 0.2381 -0.698144 0.675206
0.00306512 0.43437 -0.0178161 -0.184453 -0.0524221 -0.981442
-0.0452978 -0.00667128 -0.01242 -0.956196 -0.283606 0.0724998
-0.0309033 -0.0457089 0.0916093 -0.596874 -0.0519026 0.800654
0.0339251 0.29915 0.169859 -0.0372167 0.637992 0.769143
0.0236954 -0.381813 -0.0983917 -0.55244 -0.55934 0.61802
0.068794 0.00918619 0.0726396 0.610495 -0.424156 0.66887
0.0285594 0.0433939 0.109302 0.187232 0.0283962 0.981905
-0.0731747 0.12891 0.284407 -0.579257 0.447549 -0.681294
-0.0301889 0.142286 0.228228 -0.832139 0.12886 -0.539388
-0.0581266 0.181076 -0.0334873 -0.922564 0.115807 -0.368054
-0.0415889 -0.0232888 -0.0988781 -0.776471 0.0408041 -0.62883
0.0775493 0.273371 -0.0862924 0.972165 -0.0874252 -0.217374
0.058154 -0.238203 -0.087326 0.962853 0.114573 0.244516
0.0207466 0.156756 0.267626 0.582144 -0.0810456 0.809037
0.0870341 -0.341685 0.0632764 0.951533 0.170754 0.255789
0.0529555 0.138516 0.106201 0.41596 0.00522738 0.909368
0.095607 -0.398594 0.0600843 0.999428 -0.0290774 0.0172907
0.0035933 -0.274561 0.0805436 -0.590012 -0.424331 0.686898
-0.00746471 0.118148 0.212176 -0.0493998 -0.815143 -0.577149
0.0735365 0.302069 -0.0930412 0.90726 0.206235 -0.366534
-0.00130515 0.197371 -0.122347 -0.563489 -0.658825 0.498427
0.0490643 -0.37476 0.0885085 -0.124805 0.352906 0.927298
-0.0394305 0.105623 -0.241151 -0.0432302 -0.833499 0.550827
-0.0538706 -0.0213432 -0.0585675 -0.996375 -0.0336683 0.0781208
-0.0353265 0.0509332 -0.0861708 -0.703142 0.218038 -0.676795
-0.00820578 0.144961 -0.264498 0.579219 -0.0365267 -0.814353
0.0620452 0.0401715 0.0866845 0.521054 0.00778296 0.853488
-0.0364513 0.242728 0.0784764 -0.883978 0.166846 0.436744
-0.0465746 0.260238 -0.0155664 -0.950817 0.306226 0.0466069
0.024197 -0.378408 -0.0932236 -0.545835 -0.656806 0.52026
0.0208074 0.323714 0.145539 -0.430786 0.740381 0.516004
0.0109957 0.461609 0.0686876 -0.104442 0.415887 0.903399
-0.024884 -0.168282 -0.0534602 -0.708111 -0.219404 0.671149
0.103815 0.244673 0.0240602 0.995505 0.0690662 0.0648002
-0.0529586 0.227649 -0.00895441 -0.974313 0.198443 0.106463
-0.0320129 0.120215 -0.282981 0.64479 0.000642684 -0.764359
0.0343811 -0.215463 -0.0554058 0.539043 -0.11178 0.834828
0.025261 -0.0428209 -0.0074952 0.650233 -0.657009 0.381492
0.105335 0.0749797 0.039169 0.966413 0.0328233 0.254888
0.063322 -0.406133 0.0208263 0.203967 -0.622067 -0.75593
0.0419507 0.193723 -0.0863532 0.0891338 -0.0268319 -0.995658
0.0857573 0.331739 -0.0364361 0.802822 0.536093 -0.260926
0.0410083 -0.254376 -0.0637963 0.478048 0.021029 0.878082
-0.0161972 -0.469122 -0.116753 -0.537116 0.0142288 0.843389
-0.0159388 0.376975 0.00447486 -0.429932 -0.384291 -0.816994
0.0471491 0.477903 -0.00127077 0.599762 0.669013 -0.438985
0.0133821 -0.488578 0.103405 -0.0871995 -0.941488 0.325571
0.0463587 0.162107 0.211447 0.886093 -0.46157 0.0423451
0.0151985 -0.324661 0.0693868 -0.621974 -0.434227 0.65161
0.0833253 -0.389839 0.0416922 0.760712 0.0285039 -0.648464
-0.0487025 -0.0830403 -0.0972972 -0.806184 -0.219473 -0.549453
-0.0271184 -0.120615 0.0408258 -0.805009 -0.0553428 -0.590676
0.0248354 0.248565 0.211082 -0.350765 0.732717 0.583172
0.0340467 -0.346062 0.0381962 -0.369433 -0.1477 -0.917444
0.101809 0.0964422 0.0496267 0.882175 0.0160889 0.470647
0.0696452 0.151284 -0.0685995 0.588806 0.0641909 -0.805722
0.106673 0.0862277 0.0203399 0.99886 0.0147987 0.0453865
-0.0217528 0.304258 -0.0414218 -0.794809 0.597691 -0.105092
0.0602516 -0.0477153 0.0567403 0.823424 -0.447073 0.349427
0.0218106 0.171227 0.267383 0.488794 0.0953571 0.867172
0.0559652 0.302798 0.156605 0.626587 0.496518 0.600715
0.105882 0.235067 0.0571051 0.964923 -0.0368541 0.259934
0.0951206 0.323471 -0.0070544 0.898933 0.437988 0.00921206
0.0649636 -0.0265568 0.0149268 0.443961 -0.797261 -0.408992
0.102721 0.258536 0.0194925 0.984414 0.0919427 0.149921
0.100653 0.148974 -0.0274377 0.96437 -0.0462895 -0.260474
-0.058461 0.0869574 -0.0487178 -0.815036 0.213988 -0.538447
-0.0576402 0.422453 0.0229049 -0.989654 0.131333 0.0577629
0.00340714 -0.356034 -0.0785708 -0.61661 -0.385583 0.68638
0.0802245 -0.404674 -0.0870828 0.778574 0.110057 0.617827
-0.00941794 -0.287694 -0.100884 -0.703769 -0.266831 -0.658415
0.0528948 0.205153 -0.176824 0.969817 -0.148238 -0.193601
-0.0223152 0.173659 0.274193 -0.548725 0.825178 0.134098
-0.00791317 -0.481039 -0.132683 -0.0412701 -0.960706 0.274481
0.0687332 0.429993 0.029821 0.966074 -0.221603 0.132638
0.0107146 -0.323445 -0.0685995 -0.29131 -0.137523 0.946692
-0.0181808 0.308635 0.0146941 -0.911959 0.410195 0.00843178
0.0647812 0.236648 -0.0763211 0.825777 -0.26434 -0.498214
-0.0302041 0.11827 0.22312 -0.539052 -0.51988 -0.662683
-0.0328033 -0.169012 -0.0646475 -0.766428 -0.172416 0.618757
0.0160346 -0.380597 -0.133534 -0.149916 -0.959932 0.23676
0.0351107 0.353628 -0.041513 -0.407885 0.881741 -0.236987
-0.0304777 0.442882 0.0509339 -0.582028 0.149521 0.799304
0.0634436 0.348034 -0.0572299 0.558983 0.774614 -0.295823
0.00344132 -0.260699 -0.0706059 -0.503875 -0.347571 0.790761
0.0489427 -0.156609 0.0820636 0.669419 0.0515284 0.741096
-0.100717 0.0870182 -0.268633 -0.706475 -0.129847 0.695725
-0.0113636 0.160283 0.102553 -0.439014 -0.164943 0.88321
0.0276474 -0.349467 -0.130859 -0.642765 -0.274832 -0.715067
0.0924454 0.105684 -0.0585675 0.788854 0.121279 -0.602496
0.0993766 0.0155474 -0.040753 0.87931 -0.359862 -0.311949
0.0526516 -0.0259944 -0.0169344 0.452491 -0.834208 0.315196
0.109226 0.0456132 -0.0180441 0.99499 -0.0110473 -0.0993649
-0.018804 0.235675 -0.129643 -0.979559 -0.117133 0.163539
0.108071 0.199803 -0.00533679 0.997672 -0.0458916 0.050433
-0.0315113 0.477417 0.0181473 -0.742508 0.666673 -0.0650291
0.107949 0.209774 -0.0163416 0.985949 -0.05211 -0.158711
-0.018956 0.259265 -0.079726 -0.90091 0.100087 -0.422307
0.0326178 -0.368437 0.037345 -0.168015 0.420584 -0.891561
0.108071 0.212692 0.000530437 0.99719 -0.00940468 0.0743172
-0.00610812 0.121553 0.280516 0.64817 -0.504003 0.570839
-0.0443249 -0.0344304 0.0793276 -0.905369 -0.0397329 0.422762
0.0539284 -0.03136 0.0163138 0.622743 -0.568205 -0.537898
-0.0168584 -0.21899 -0.116389 -0.31897 -0.093965 -0.943095
0.0157458 0.229595 0.225552 -0.59446 0.551084 0.585597
0.0501891 -0.295963 -0.129278 0.323014 0.132023 -0.93714
0.0273282 -0.306421 0.083158 -0.276853 -0.112445 0.954311
-0.0486114 0.156513 -0.0515754 -0.750657 0.0549727 -0.658402
0.0277994 0.00152153 0.0970205 0.450577 -0.208355 0.868084
-0.0571234 -0.482255 0.0891773 -0.276628 -0.955396 0.103418
-0.0379713 0.444098 0.0386522 -0.850536 0.177059 0.495217
-0.00824758 -0.126087 -0.115537 -0.222659 0.0981421 -0.969944
-0.0923268 0.105988 0.297054 -0.661067 0.272464 -0.69911
-0.0542354 0.0399587 -0.01166 -0.43053 -0.901309 0.0478143
0.0108969 0.17451 0.274193 0.49567 0.128476 0.858956
0.0418595 0.205275 -0.106478 0.382942 -0.923593 -0.0181889
-0.0409809 -0.481525 -0.154693 -0.88857 0.328462 -0.320245
-0.0304777 0.371138 0.0201689 -0.693978 -0.666064 -0.273409
-0.01926 0.308635 0.0576219 -0.868914 0.304912 0.389894
0.0350498 0.370895 0.0613915 0.386567 0.624717 0.67845
-0.0379713 -0.169377 -0.0702411 -0.791232 -0.179679 0.584524
0.0697668 -0.266049 0.0799964 0.654342 0.00243991 0.756195
0.0376035 0.223515 -0.202847 0.701684 0.2804 -0.654993
0.062714 -0.172295 0.0524235 0.996377 -0.044257 -0.0726296
0.055722 0.444585 -0.0112496 0.682077 0.166441 -0.712087
-0.00533293 -0.338766 -0.108302 -0.273647 0.120515 -0.95425
-0.0290337 -0.0332296 -0.0128 -0.826679 -0.531674 -0.184186
0.00895891 -0.315419 0.0419962 -0.586743 -0.53996 -0.60347
-0.058157 0.189953 0.00601387 -0.984349 0.132603 0.116072
0.102721 0.15627 -0.0126176 0.989683 -0.0563174 -0.131743
0.0359923 0.172564 0.257533 0.662686 0.103946 0.741649
-0.0121692 -0.121101 -0.114929 -0.292993 0.0878752 -0.952068
-0.00213382 0.283829 -0.121009 -0.559069 0.527041 -0.640054
0.0173418 -0.0668674 -0.0998509 0.806738 -0.0329921 -0.589988
0.055266 0.242971 0.20257 0.624261 0.424962 0.65552
0.0195306 0.338063 0.111065 -0.52842 0.817087 0.230525
-0.00813353 0.259265 0.11064 -0.962948 0.0769338 0.258481
-0.0224064 0.257806 0.0944669 -0.757318 0.271083 0.594124
0.0856965 -0.456719 -0.133413 0.741372 -0.105473 -0.662754
-0.0132408 -0.222395 -0.0649515 -0.459558 -0.297518 0.836833
-0.0037882 0.0550372 0.0984797 -0.486916 0.142062 0.861818
0.0517699 -0.329768 0.0930685 0.195706 -0.0996985 0.975582
0.0297298 0.184359 0.261303 0.452022 0.345061 0.822562
0.0845413 0.251969 -0.0600875 0.825116 -0.0957321 -0.556794
-0.0207952 0.141799 0.29681 0.461515 0.0527406 0.885563
-0.0697091 0.0827621 -0.0249449 -0.965372 0.111114 -0.236029
-0.0170028 0.363599 0.0104618 -0.92233 -0.0164097 -0.386055
-0.0280153 -0.137153 0.0434707 -0.790772 -0.0701243 -0.608081
0.0910469 0.121735 -0.0582635 0.790351 0.132617 -0.598129
-0.0152016 0.199924 -0.182053 -0.825779 0.516271 -0.227055
0.0566644 -0.0241248 0.00317525 0.469398 -0.832711 -0.293697
-0.0547826 0.103191 0.041373 -0.874743 -0.011864 0.484443
-0.0754851 0.0735205 -0.295628 0.572514 -0.700765 -0.425625
0.026021 -0.478121 -0.157003 0.383284 -0.677561 -0.627698
0.0199106 0.181076 0.155024 -0.342251 -0.749839 -0.56622
-0.0319064 0.181319 -0.220114 -0.788382 0.605419 0.109183
0.00753775 0.48374 0.0508731 -0.123987 0.756649 0.641957
0.00146907 0.378677 -0.00354318 -0.513321 0.539552 -0.667372
0.0255498 0.341467 0.110093 -0.443746 0.858252 0.257861
0.00880693 0.375759 -0.0130888 -0.470027 0.508389 -0.721537
0.0987078 -0.429967 0.0655868 0.946255 0.257557 0.195617
0.00862451 0.220961 -0.210386 -0.0749946 0.750533 -0.656563
0.0539284 -0.0627634 0.0621211 0.979838 -0.118678 0.160729
0.0521652 -0.138612 0.0526059 0.982665 0.182094 -0.0348062
-0.0288968 0.183995 -0.219141 -0.771194 0.62467 0.122668
0.0661188 -0.0235624 0.00502206 0.377424 -0.893355 -0.243859
-0.0280913 0.145569 -0.210994 -0.916527 -0.0233496 0.39929
-0.059221 0.0404147 0.00910328 -0.51642 -0.83831 -0.174778
0.015305 0.437289 -0.0225737 -0.0202091 -0.0393471 -0.999021
0.098647 0.311311 -0.0185609 0.91837 0.314121 -0.240676
0.0948166 -0.498063 0.0561931 0.415177 -0.617004 -0.668531
0.0463587 0.48374 0.0115486 0.459084 0.840505 -0.28774
0.0227834 0.268507 0.189315 -0.270468 0.647917 0.712075
-0.0310249 -0.221787 -0.0733419 -0.847053 -0.228372 0.479945
0.0581236 -0.243553 -0.0884204 0.926453 0.0556319 0.372278
0.00792531 -0.290613 -0.129886 -0.521126 -0.0752574 -0.850155
0.0512836 -0.209626 -0.0946828 0.950699 0.251805 -0.181013
-0.0277416 0.153594 -0.182174 -0.905823 -0.328323 0.267747
0.0146514 -0.351656 -0.113713 -0.471331 0.00168185 -0.881955
-0.0266776 -0.233095 -0.114321 -0.43449 -0.266586 -0.86032
-0.0115687 0.241755 0.117632 -0.957712 0.23597 0.164641
-0.00219314 -0.299368 -0.10666 -0.832328 -0.175893 -0.525634
0.0055313 -0.279668 0.0808476 -0.53766 -0.48686 0.688396
0.0142258 -0.133626 0.104925 0.0490437 -0.0601874 0.996982
-0.0019756 0.28237 -0.126238 -0.53648 0.502691 -0.677858
-0.0535362 0.119182 -0.249906 -0.566268 -0.484593 0.666716
0.020321 0.190318 -0.120766 -0.173893 -0.726623 0.664665
-0.064845 0.130126 0.00564906 -0.99249 0.110649 0.0521622
-0.0404641 -0.0499649 0.039093 -0.9257 -0.22851 -0.301433
-0.0414065 0.394728 0.0403242 -0.758897 -0.269459 0.592846
0.0971878 0.2938 0.0624555 0.952506 0.194187 0.23457
0.0985862 -0.48493 0.0482587 0.725555 -0.0869354 -0.682651
0.00410253 -0.300097 -0.122347 -0.806434 -0.184917 -0.561667
0.0794341 -0.361384 0.0846781 0.655124 0.0691378 0.752351
-0.0559378 -0.475689 0.0886301 0.207185 -0.941058 0.267365
0.0728068 0.0404147 0.080422 0.575057 -0.0410535 0.817083
-0.00565973 0.0133282 0.103526 -0.310858 -0.0341087 0.949844
0.0419203 -0.220814 -0.112984 0.597481 0.360305 -0.716378
0.061194 0.103069 -0.0820364 0.45663 0.173429 -0.872589
0.0503107 0.197371 -0.139736 0.905335 -0.422154 0.0464168
0.0217346 -0.161594 -0.0341257 0.421413 -0.366987 0.829296
-0.0478514 0.0151978 0.029517 -0.962679 -0.268922 0.0304837
0.056938 -0.40516 0.076166 0.382363 -0.0478572 0.922772
0.0534724 -0.113562 0.0492011 0.98778 -0.0278214 0.153349
0.0754213 -0.459394 -0.0913388 0.333862 -0.160857 0.928796
-0.055117 0.205275 -0.0346729 -0.970617 0.119182 -0.20904
0.00258628 0.197127 -0.123198 -0.519792 -0.594228 0.613767
-0.0444161 0.418076 0.00807348 -0.881086 0.0646894 -0.468512
0.0480003 0.215854 -0.191538 0.855449 0.216089 -0.470652
0.047818 -0.227015 -0.112011 0.680697 0.297331 -0.669511
0.0737188 0.23227 0.0937981 0.863487 -0.228467 0.449659
-0.0431393 -0.0262224 0.0795708 -0.819327 0.092038 0.565891
-0.0697091 0.0647652 0.0260438 -0.911737 0.158107 0.379128
-0.01337 -0.260699 0.039929 -0.783753 -0.225724 -0.578602
0.1057 0.220961 0.012338 0.997848 0.034974 0.055468
0.0514355 -0.143111 0.0213013 0.686395 0.0703002 -0.723823
0.0379683 0.170254 -0.152261 0.740435 -0.653809 0.155849
-0.0115308 0.110609 0.262762 0.476234 -0.842863 0.250567
0.0335907 -0.382299 0.0226237 -0.242546 0.271474 -0.931383
-0.0683106 0.110122 -0.00903041 -0.986741 0.126545 -0.101631
0.106186 0.0743717 -0.0284713 0.985853 0.0634655 -0.155133
-0.0373937 -0.181537 0.0669852 -0.957453 -0.108507 -0.267412
-0.0182264 -0.0855331 0.0239994 -0.674908 -0.206506 -0.708417
0.021005 0.203451 -0.0971757 0.138785 -0.966229 -0.217118
0.0895269 -0.442613 -0.120401 0.919098 0.205979 -0.335902
0.0576675 -0.213396 0.0768348 0.76704 0.266687 0.583547
0.00335011 0.130734 0.277354 0.656022 -0.28926 0.697111
0.0139977 0.155783 -0.238476 0.777569 -0.0542863 -0.62645
0.028909 -0.338037 -0.134385 -0.490254 -0.116667 -0.863736
-0.018272 -0.331957 -0.102161 -0.909733 -0.410737 -0.0606755
0.0746917 -0.248174 0.0559499 0.990893 0.0979303 -0.0924106
-0.0184088 0.349007 0.0595067 -0.574079 -0.223264 0.787773
-0.0424401 0.0387123 -0.080942 -0.749163 0.0543176 -0.660155
0.0553268 0.182171 0.200867 0.946019 -0.323838 0.0133072
0.107585 0.197492 -0.0261609 0.966087 -0.0655356 -0.24976
0.056634 0.259509 0.189072 0.699344 0.423939 0.575494
-0.00329138 -0.321013 -0.10666 -0.370003 0.139546 -0.918491
-0.0194272 0.351195 0.0602363 -0.675184 -0.181229 0.71504
-0.0622306 0.179495 -0.0078296 -0.988697 0.149906 0.00260272
0.0230722 0.150433 -0.151166 0.214004 -0.823268 0.525768
-0.017816 -0.244647 -0.0698763 -0.523997 -0.40233 0.750705
0.0276474 -0.163418 0.0972029 0.502806 -0.0190575 0.864189
0.00279528 0.358005 -0.0209321 -0.570544 0.150084 -0.807437
0.0578196 0.192142 0.225431 0.982525 -0.0507146 0.179089
0.0695844 0.248321 0.171197 0.912803 0.164384 0.373857
0.0587316 0.108541 0.0975677 0.639906 -0.063057 0.765862
-0.00748374 0.31885 -0.0599051 -0.741271 0.639833 -0.202809
0.0914725 -0.425832 0.064918 0.913063 0.203783 0.353255
0.0345635 -0.108516 -0.0261001 0.809288 -0.0878231 0.58081
0.0372691 -0.409781 -0.157125 -0.31268 -0.175356 -0.933532
-0.0284408 -0.206465 0.0799964 -0.755673 -0.124789 0.642951
-0.0692834 0.122222 0.327454 0.0546594 0.374658 0.925551
0.0460851 0.47231 0.0518459 0.536696 0.631375 0.559752
0.0175394 -0.399567 0.0470123 -0.857404 -0.510901 -0.0619555
-0.0872196 0.109149 0.290487 -0.612275 0.236604 -0.754412
-0.00963836 0.221204 -0.116389 -0.874412 -0.474216 0.102581
-0.0271033 -0.304232 -0.0904268 -0.790541 -0.349579 0.502832
-0.012648 0.410537 0.0611787 -0.292641 -0.143051 0.945462
0.0904389 -0.473257 -0.123685 0.711324 -0.702847 -0.00499646
0.107524 0.0743717 0.0241742 0.996782 0.0237771 0.0765481
0.0390019 -0.10809 -0.0726731 0.899142 -0.0556121 -0.434109
-0.0521986 0.173415 0.0454011 -0.946068 0.105643 0.30626
-0.026404 0.122465 0.298513 0.641627 -0.132134 0.75555
0.108679 0.192385 0.038865 0.986242 -0.0511552 0.157197
0.0693412 -0.410511 0.0319642 0.099819 -0.598097 -0.795183
-0.0219504 0.165268 0.20488 -0.966465 0.108092 -0.232939
0.00108341 -0.0356769 -0.116145 0.200594 0.0809783 -0.976322
0.0818661 -0.456962 -0.0918252 0.4246 -0.115558 0.897976
-0.00593711 0.137786 0.286596 0.612919 -0.134579 0.7786
