ply
format ascii 1.0
element vertex 814
property float x
property float y
property float z
property float nx
property float ny
property float nz
element face 0
property list uchar int vertex_indices
end_header
0.0771945 0.0726136 0.0844961 0.576404 -0.0280546 0.816683
0.049393 -0.133027 0.0583353 0.979966 0.198979 0.00860634
-0.0010714 0.463719 -0.0146324 -0.174351 0.207313 -0.962612
-0.027312 -0.460933 0.0771431 -0.079453 0.952376 -0.294394
0.0513376 -0.406242 -0.146849 0.622896 0.0981866 -0.776119
0.108004 0.051375 -0.0271659 0.984133 0.0258577 -0.175541
-0.00476688 0.261725 -0.139557 -0.740372 0.396612 -0.542723
0.0312536 -0.360787 0.0413201 -0.68473 0.165366 -0.709788
-0.0418205 0.431391 0.0420949 -0.857774 0.0828267 0.50731
-0.0444031 0.124631 -0.286131 0.409184 -0.889234 -0.204527
0.026696 -0.338667 0.0430216 -0.6717 -0.338304 -0.659067
0.0464761 -0.314117 -0.124608 0.802375 0.195081 -0.564037
0.017687 0.345099 -0.0195395 -0.584346 0.705659 -0.40073
0.0429515 0.0408925 -0.0993285 0.425288 0.0533072 -0.903487
-0.00565185 -0.0225802 0.106677 -0.26247 0.015797 0.964811
-0.0328571 0.184306 -0.0594644 -0.531049 0.0171544 -0.847168
0.00188728 -0.443918 -0.156572 -0.263606 0.709377 -0.653679
0.0685655 0.146143 -0.0672427 0.613584 0.0836016 -0.785192
-0.0283299 -0.0402638 -0.111239 -0.357243 -0.0391905 -0.933189
0.048755 -0.413048 0.0445712 -0.3616 -0.203369 -0.909883
0.0400954 0.318118 -0.109173 -0.0193564 0.563331 -0.826004
0.0317094 0.0703652 0.113726 0.113036 -0.148456 0.982438
-0.0174067 0.344856 -0.000184727 -0.6446 0.0169492 -0.764332
-0.000794152 -0.0910966 -0.0190837 -0.438719 -0.59193 0.676125
0.0556218 0.2012 -0.0798218 0.555484 -0.160766 -0.815838
-0.0291198 0.176285 0.242676 -0.750035 0.614491 -0.244638
0.00491046 0.289679 0.156021 -0.800194 0.36404 0.476619
0.0135396 -0.260641 0.0281258 -0.200997 -0.00237352 -0.979589
0.0153019 0.40052 -0.0060185 0.0386813 -0.400838 -0.915332
0.0552571 -0.325298 0.0916668 0.19875 -0.0659187 0.977831
-0.0187436 0.20594 -0.236301 -0.753266 0.649705 0.102336
-0.0361234 0.263427 0.0656883 -0.903472 0.309381 0.296685
0.0773161 -0.435168 0.0328429 0.281547 -0.179305 -0.942646
0.0688085 0.349718 0.0558134 0.739649 0.650135 0.173906
-0.0478973 -0.0158121 0.0390565 -0.972589 -0.198009 -0.121913
0.0694162 0.269017 0.162341 0.897411 0.276737 0.343612
0.0268176 0.148939 0.196371 0.346551 -0.912788 -0.21615
0.0196013 0.466393 -0.0151338 0.0921095 0.364294 -0.926718
-0.0148013 -0.268419 -0.0826779 -0.609215 -0.156867 0.777335
-0.0263245 0.476845 0.0470628 -0.58963 0.579971 0.562113
-0.010274 0.0955233 0.0964675 -0.598705 -0.0293337 0.800433
-0.0448589 -0.477706 -0.168726 -0.713755 0.15073 -0.683984
0.0624886 0.213596 -0.145999 0.892194 -0.45161 0.00619634
0.0711785 0.354336 0.0301008 0.808469 0.58287 0.0814923
0.0270606 -0.0440315 0.0968321 0.508283 0.0381793 0.860343
-0.0607498 0.16012 -0.0288067 -0.941083 0.134111 -0.310447
-0.0436131 0.44403 0.00779873 -0.841118 0.185606 -0.508007
0.0656486 0.048762 0.0896007 0.498835 -0.0319654 0.866107
-0.0482619 0.229275 0.0262647 -0.98006 0.197363 0.0230075
-0.112342 0.128885 0.304053 -0.602336 0.184514 -0.776625
0.105999 0.149303 0.00741133 0.994527 -0.00484053 -0.104371
0.0907459 0.31909 0.0600672 0.887256 0.446938 0.114117
-0.0284362 0.176528 0.240975 -0.750035 0.614491 -0.244638
-0.061479 0.172639 -0.000321455 -0.990207 0.124262 0.0636237
-0.0301074 0.193786 0.29749 -0.0704656 0.94463 0.320481
0.0126281 0.193543 0.125758 -0.404239 -0.550042 0.730784
-0.00409846 0.492888 0.0347419 -0.157343 0.919381 0.360531
0.00118086 0.00803194 0.10771 -0.385644 -0.157211 0.909155
0.0162134 0.163523 0.190172 0.113832 -0.770356 -0.627371
0.0514895 0.220281 0.23976 0.781107 0.368313 0.504201
0.0828461 -0.0125002 0.0425507 0.889815 -0.1867 0.41638
0.0256022 -0.032531 -0.00538043 0.607023 -0.714278 0.348326
0.0606048 0.191112 -0.0753249 0.520008 -0.16554 -0.837967
0.0369051 -0.0626266 0.100843 0.528861 0.135771 0.837778
-0.00811167 -0.484512 0.106859 -0.48381 -0.240933 0.841356
0.0520972 -0.37683 -0.0917324 0.423036 -0.165572 0.890857
-0.00602025 0.0391302 0.1054 -0.474561 0.115746 0.87258
-0.00765981 -0.269877 0.0774166 -0.754524 -0.379824 0.535189
0.0341705 -0.444404 0.0396946 -0.542574 0.103218 -0.833642
0.00202396 -0.377559 -0.104129 -0.492024 -0.792125 0.361178
-0.0353182 0.389825 0.0512254 -0.619331 -0.315646 0.718886
0.0156817 -0.339153 0.0583657 -0.825549 -0.532539 0.186739
0.0462027 -0.183465 0.0925783 0.592124 -0.00205992 0.805844
0.0493019 0.468581 0.0522585 0.657333 0.573833 0.488497
-0.0464996 0.178229 -0.290992 0.0800068 0.845789 -0.527485
-0.0390403 -0.484025 0.0731324 -0.852112 -0.434973 -0.291039
0.0153627 0.32225 0.151402 -0.469151 0.690844 0.55012
-0.0394505 0.0377933 0.0777508 -0.794948 -0.0228454 0.606247
-0.0173612 -0.291754 -0.116587 -0.887571 -0.119829 -0.444814
0.0633393 0.324195 0.122902 0.787503 0.484357 0.381101
0.0928121 0.109682 0.0705194 0.782993 -0.0556645 0.619535
-0.0409393 0.0121642 0.0665087 -0.940127 -0.0655185 0.334467
0.00826792 0.339022 -0.0219702 -0.566745 0.752055 -0.336471
0.0274252 -0.0822852 -0.0770264 0.817173 0.0274582 -0.575738
0.0455038 0.252731 0.216546 0.486889 0.605846 0.629198
-0.00201714 0.158297 0.190172 -0.180802 -0.590401 -0.786598
0.0754323 -0.459961 -0.0947101 0.34217 -0.329854 0.879839
-0.0196248 -0.184194 0.0426418 -0.726459 -0.0993065 -0.679997
0.0240525 0.28506 -0.131171 -0.442841 0.64023 -0.627692
-0.0334192 -0.0616847 -0.107168 -0.334943 0.0483485 -0.940997
0.0388497 -0.246178 -0.087114 0.940399 0.0823461 0.329953
0.0122027 0.486082 0.0511646 0.0383112 0.858954 0.510618
0.0741561 0.340481 0.0729197 0.739221 0.637448 0.217284
0.0694162 -0.383393 -0.129105 0.859887 0.0352285 -0.509267
-0.0351056 0.46615 0.00568702 -0.748146 0.419438 -0.514148
0.0675324 0.229032 0.175345 0.984488 -0.161976 0.0674363
-0.037278 -0.0371342 0.0141092 -0.817723 -0.4306 -0.381986
-0.0284514 0.483894 0.0313921 -0.549527 0.823431 0.141355
0.0267568 -0.20364 0.0988982 0.266023 -0.160151 0.95057
0.00478138 -0.338181 -0.131536 -0.600723 -0.148282 -0.785585
0.0706924 -0.0185543 -0.0567905 0.691814 -0.58214 -0.427208
-0.0546426 0.138487 0.0447232 -0.933122 -0.0385607 0.357488
0.0572625 0.188317 0.220557 0.901393 -0.414194 0.126228
0.0121571 -0.381448 -0.0953785 -0.527237 -0.357136 0.771022
0.0391535 -0.322868 0.0917883 -0.315276 -0.16559 0.934441
0.033654 -0.300748 0.0263483 -0.150978 -0.0610128 -0.986652
0.0326209 -0.28592 0.0261356 0.0453353 -0.0205166 -0.998761
-0.0252003 -0.116498 0.0874738 -0.543673 -0.107555 0.832377
-0.00122332 -0.454614 -0.112698 -0.259374 0.0619674 0.963787
0.0859452 -0.00766532 -0.0311463 0.771488 -0.634569 -0.0461218
-0.0224049 -0.238642 -0.0659666 -0.285113 -0.305413 0.908534
0.0812053 0.0428067 -0.0741096 0.616882 -0.0133909 -0.786942
0.0824206 0.295755 -0.0769657 0.973756 0.0984255 -0.205209
-0.04416 0.0235886 -0.0874178 -0.664037 0.349944 -0.660753
-0.00430162 0.130708 0.249604 0.514124 -0.857716 -0.000343257
0.00371031 0.416563 0.0707625 -0.146145 -0.189293 0.970984
-0.0293629 0.0198666 -0.0972016 -0.49467 0.335147 -0.801859
-0.0164345 -0.28908 -0.121691 -0.807333 -0.186529 -0.559839
0.0109114 -0.0723192 -0.0166226 -0.84678 -0.150332 0.510258
-0.121336 0.129614 0.339055 -0.851567 0.163177 0.498203
0.0486942 0.19172 -0.159732 0.824349 -0.564268 0.0452769
-0.0163281 -0.239979 -0.0645689 -0.246902 -0.283069 0.926775
-0.0135251 0.197675 0.284121 -0.0961734 0.961455 0.257595
-0.0245167 -0.0543013 0.0968929 -0.57626 -0.0764456 0.813683
0.00209995 -0.314603 0.0429913 -0.478075 -0.417337 -0.772835
0.0432554 -0.295643 -0.0848048 0.77132 -0.0626005 0.633362
-0.0177865 0.23049 0.114212 -0.951079 -0.0365039 0.306785
0.0213028 -0.33891 -0.141502 -0.153342 -0.100769 -0.983022
0.00400659 -0.254807 -0.0631712 -0.174609 -0.121677 0.977091
-0.0430358 -0.0545444 -0.0464599 -0.674472 -0.101932 0.73123
0.0750069 0.343155 0.0460601 0.808917 0.576777 0.113938
0.0843653 -0.327729 0.0632575 0.970132 0.10935 0.216533
0.0573841 0.189532 0.217397 0.889822 -0.456258 0.00680061
0.00799447 -0.397005 -0.132022 -0.98341 0.0773109 -0.164095
-0.0314139 0.368434 0.0299944 -0.661322 -0.470354 -0.584312
0.0573841 0.340238 -0.0850479 0.351397 0.803128 -0.481151
0.0876467 -0.341584 0.0502835 0.998058 0.0198212 -0.0590568
0.0201786 -0.321652 -0.140286 0.0223695 0.0224077 -0.999499
-0.0444335 0.227087 -0.0448799 -0.817884 0.0553953 -0.572711
0.0135852 -0.454857 -0.108322 -0.141694 -0.109689 0.983815
0.0651017 0.452781 0.0258773 0.958831 0.281166 0.0398458
-0.0505711 0.0411963 -0.0398969 -0.921259 -0.38895 -0.000512614
-0.00828078 -0.127801 0.0983513 -0.497612 -0.12364 0.858543
0.0480865 -0.377316 0.0267585 -0.0919618 0.441899 -0.892339
-0.00341101 0.119162 0.1054 -0.419651 -0.0706206 0.904934
0.0839399 0.0994733 0.0817615 0.746994 -0.0732586 0.660782
-0.010443 0.275337 -0.0766011 -0.882565 0.120462 -0.454497
0.0453215 0.19172 0.131288 0.13891 -0.872275 0.468871
0.0172921 -0.0872074 0.104793 0.12569 -0.128978 0.98365
-0.0107108 0.196338 0.16623 -0.815615 -0.325588 -0.478293
0.0980989 0.0397379 0.0582138 0.88317 -0.0461948 0.466772
-0.0244558 0.169965 -0.224025 -0.785264 0.436917 0.438708
0.0549533 -0.249095 0.0297589 0.341277 0.0364595 -0.939255
0.0953036 0.00708243 0.027389 0.877443 -0.457081 0.145501
-0.0299402 -0.231593 0.0554184 -0.960497 -0.168557 -0.221435
0.0679578 0.229032 0.155534 0.973023 -0.230499 0.00982632
0.0763438 0.332946 0.0864407 0.77996 0.561884 0.275589
-0.100857 0.160849 0.314505 -0.817362 0.50945 -0.269035
-0.0129782 0.337321 0.0617991 -0.727161 -0.0970956 0.679566
-0.00998825 0.162551 0.111113 -0.493293 -0.252522 0.832403
0.0953036 0.0961918 0.0663871 0.81763 -0.0480921 0.573732
0.0376951 0.0263232 -0.09945 0.333592 -0.289501 -0.897165
-0.0784334 0.125847 -0.292451 -0.174588 -0.591289 0.787335
0.0596325 -0.0121204 0.0765658 0.678303 -0.353736 0.644031
0.00311781 -0.0796114 -0.113913 0.567321 -0.0677845 -0.820702
-0.036959 -0.107139 0.0514077 -0.935329 -0.0844099 -0.34356
-0.0504496 0.398819 0.0183383 -0.950902 -0.262364 -0.164168
0.0810837 0.311555 -0.065845 0.917202 0.23925 -0.318591
-0.0361082 -0.15065 -0.121448 -0.370976 0.115759 -0.921399
-0.00191457 0.199377 0.244743 -0.654024 0.755586 -0.0366406
0.00846544 -0.374642 -0.132751 -0.649196 -0.0279877 -0.760106
0.049393 -0.133027 0.0583353 0.979966 0.198979 0.00860634
0.0922044 -0.49545 0.0795131 0.409319 -0.653478 0.63673
0.0229131 0.165954 -0.231925 0.831043 -0.451671 -0.324593
0.0829068 0.231219 0.0922745 0.826834 -0.236443 0.510334
0.0385154 0.441357 0.0721905 0.428537 0.026843 0.903125
0.0395181 -0.478921 0.0998705 0.364097 -0.12673 0.922699
0.0228372 0.146143 0.199774 0.293553 -0.934592 -0.200906
0.0581133 -0.365405 0.0868661 -0.0915068 0.0282016 0.995405
-0.0474719 -0.48281 0.0716436 -0.780189 -0.443142 -0.441509
-0.00134865 0.314958 0.102848 -0.840448 0.436899 0.320572
0.0354467 0.162794 0.233318 0.658411 -0.748633 0.0777446
0.0978559 0.156596 0.0695167 0.895389 -0.0825278 0.437569
-0.0423066 0.162673 0.325443 0.586248 -0.0578297 0.808065
0.0951213 -0.458503 0.0480958 0.72849 0.130446 -0.672522
0.0637039 0.428474 0.0418822 0.923509 -0.197899 0.328583
0.0415539 -0.0698277 -0.0473714 0.94071 -0.260878 0.216813
0.0111545 -0.0582209 0.00214726 0.316362 -0.410909 -0.855026
0.0143903 0.137636 -0.0830425 -0.164982 0.332571 -0.928535
-0.0826265 0.157811 -0.28686 -0.888188 0.43534 0.146971
-0.0309733 -0.0797937 -0.0387423 -0.634674 -0.0227738 0.772444
-0.0212047 0.454726 0.0610091 -0.488689 0.182799 0.853093
-0.0206122 -0.00453386 0.0970752 -0.619841 0.118015 0.775802
-0.0464389 0.0376414 -0.0544206 -0.990599 0.06587 -0.119891
0.0376647 0.237418 -0.204215 -0.0831811 0.807252 -0.584315
0.0840006 0.0830658 0.0795131 0.693175 -0.0978593 0.714095
-0.0155077 0.16328 -0.0646297 -0.200136 0.000376022 -0.979768
-0.0352726 0.130708 0.0796347 -0.75698 -0.0362731 0.652431
0.109098 0.0265663 0.00893814 0.956233 -0.292521 -0.00711916
-0.0586229 -0.209352 -0.0793356 -0.783766 -0.220808 0.580478
-0.109061 0.124267 0.351695 -0.540194 -0.134194 0.830772
-0.00118152 0.230855 0.202448 -0.820083 0.366215 0.439716
0.0358112 0.252002 0.221529 0.120334 0.67607 0.726945
0.0456253 -0.374156 -0.085534 0.1454 -0.254541 0.956069
0.0749462 0.258808 0.150916 0.989104 0.00259374 0.147194
-0.0164648 0.426772 -0.0105913 -0.342978 -0.064881 -0.9371
0.0499095 0.368191 -0.00269143 0.634197 0.501818 -0.588194
-0.0479277 -0.0107607 0.0224287 -0.953122 -0.274726 -0.12682
-0.0894933 0.122565 -0.275192 -0.0915373 -0.00854446 0.995765
0.0364494 0.0882919 -0.0922793 0.306082 0.233467 -0.922934
0.081813 -0.358113 0.0676025 0.962128 0.0911233 0.256918
-0.0367614 0.279226 0.00558828 -0.916413 0.392187 0.0798519
-0.0243191 0.165954 0.100235 -0.744194 -0.00997955 0.667889
-0.0210604 -0.0990573 0.0256571 -0.706456 -0.198715 -0.679288
0.0739738 0.232799 0.112693 0.890707 -0.308223 0.334125
-0.0284058 0.171666 -0.194006 -0.995906 0.0781306 0.045459
0.0584779 0.189289 0.231009 0.937296 -0.300437 0.176673
0.0910498 0.319334 -0.0347316 0.867747 0.376573 -0.324359
-0.0549465 0.176042 0.0319922 -0.961018 0.137325 0.239972
0.0619417 0.352392 0.0716436 0.628817 0.744911 0.222928
0.111043 0.225264 -0.00384603 0.996054 -0.0799506 0.0385327
0.0467192 0.323709 -0.106499 0.109877 0.701731 -0.703918
-0.0494469 -0.00717919 -0.0398665 -0.939276 -0.219301 0.263945
0.0694162 -0.418396 -0.133966 0.697659 0.227462 -0.679363
0.0316486 0.169722 -0.150982 0.573453 -0.784581 0.235763
-0.0359107 -0.485241 0.0954344 -0.0627071 -0.997956 0.0123244
-0.00265137 -0.156605 0.095556 -0.449329 -0.172785 0.876498
-0.0825049 0.127548 0.314991 -0.534558 -0.843184 0.0573477
0.0786531 0.27315 -0.104858 0.978503 -0.028839 -0.204207
-0.0127541 0.0457843 0.101086 -0.522559 0.0983372 0.846913
0.0816915 0.318361 -0.0586744 0.864955 0.376123 -0.332242
-0.000938454 -0.195618 -0.0466422 0.289443 -0.42465 0.857843
-0.0540653 -0.469441 -0.148794 -0.988657 0.118976 0.0916665
-0.00446495 -0.296859 -0.0693696 -0.335836 0.020342 0.941701
0.0392143 0.177743 -0.176626 0.766024 -0.64258 0.0172609
-0.0502369 0.125725 -0.294881 0.242295 -0.893742 -0.377517
-0.0684066 0.0906619 -0.00598811 -0.992373 0.0781708 -0.0953192
-0.00394274 0.208492 0.125819 -0.839242 -0.478132 0.258966
-0.00342236 0.148453 -0.262309 0.668951 -0.552395 -0.497358
0.00764504 0.262211 0.193332 -0.656404 0.489019 0.574451
0.0868568 -0.363947 0.0706409 0.939271 0.116219 0.322899
-0.0148089 -0.244598 -0.0651158 -0.255334 -0.312189 0.915064
0.108612 0.129614 0.0275257 0.999313 -0.00362939 0.0368736
0.0672285 0.238633 0.190537 0.94773 0.116502 0.297045
0.0871606 0.0401329 0.0746516 0.744082 0.0334924 0.667249
-0.102072 0.143834 0.307456 -0.724349 0.435911 -0.534135
0.0567764 -0.151987 0.0624979 0.956523 0.291656 0.000364284
-0.0256561 0.140067 0.300893 0.429427 -0.803609 0.412074
-0.00633832 -0.274253 0.0471995 -0.892462 -0.178793 -0.41418
0.0795038 -0.442217 -0.129956 0.783227 0.240273 -0.573432
-0.0168826 -0.444648 -0.129227 -0.596704 0.675969 0.432447
0.0798076 0.253217 0.101937 0.925722 -0.143841 0.349783
0.0995574 0.26683 -0.0378916 0.808245 -0.015792 -0.588634
-0.0431878 -0.47333 -0.13348 -0.583137 -0.234494 0.777794
-0.10742 0.111323 -0.298771 -0.776278 -0.622595 -0.0988344
0.0708139 0.126454 0.0965283 0.698736 -0.0049764 0.715362
-0.0385238 0.233893 -0.0522937 -0.808245 -0.141357 -0.571628
0.101016 0.212503 0.0752289 0.778026 0.0256739 0.627708
0.0480561 -0.480136 0.0957991 0.323104 -0.246653 0.913655
0.0818738 -0.331132 0.0380994 0.583715 0.0014852 -0.811957
-0.0432789 0.100567 0.0592164 -0.849266 -0.105179 0.517383
-0.0137758 0.27242 -0.0736234 -0.858135 0.114563 -0.500479
0.0706316 0.139824 -0.0642651 0.549508 0.152471 -0.821458
0.0260883 -0.250067 -0.0707065 0.50185 0.0267025 0.864542
-0.0274943 -0.473573 -0.166052 0.470309 -0.599538 -0.647583
-0.109729 0.128885 -0.30898 -0.961643 0.246563 -0.12021
0.0315878 -0.101245 -0.0707673 0.906972 -0.080928 -0.413344
0.059511 0.269017 -0.151832 0.503933 0.563983 -0.654198
0.0439542 -0.355196 -0.140773 0.117064 0.208869 -0.970912
0.0695985 0.23681 0.174737 0.982597 -0.161222 0.0922505
-0.0138669 -0.484998 0.107224 -0.4893 -0.288499 0.823015
-0.004144 0.176285 0.113361 -0.454978 -0.144992 0.878619
0.00315581 -0.316305 0.0767785 -0.59539 -0.254474 0.762072
-0.0179308 0.308881 -0.0300524 -0.787684 0.610547 -0.0823728
0.00709054 0.176649 0.287524 0.469636 0.0573476 0.880995
0.0104405 -0.130232 0.105461 0.0700902 0.0517261 0.996199
0.0117165 0.155745 0.281204 0.621061 -0.392805 0.678224
-0.040362 0.15453 -0.224268 -0.881311 0.180517 0.436697
-0.0384326 -0.122392 0.05554 -0.948303 -0.089843 -0.304383
0.0256326 -0.373184 0.0719474 -0.658046 0.166087 0.734432
-0.0633933 -0.133027 -0.0824956 -0.931041 0.0545014 0.360822
0.0225485 0.331001 0.146176 -0.221641 0.784841 0.578705
0.0346263 0.270233 -0.162771 -0.256581 0.712671 -0.65289
0.10533 0.0823973 -0.0292017 0.952253 0.11309 -0.283593
0.0874645 0.266587 -0.0502883 0.847043 -0.0646515 -0.527578
0.018629 0.250544 -0.184404 -0.435247 0.692602 -0.575207
0.0503046 -0.274739 0.0296982 0.168658 0.0757295 -0.982761
0.00234302 -0.467983 -0.175168 -0.0816994 -0.272756 -0.958608
0.0630355 -0.48913 0.0886284 0.215698 -0.607707 0.764308
0.0618201 0.179445 0.106616 0.801867 -0.0253481 0.596965
0.0104101 0.14663 -0.212965 0.629575 -0.776355 0.0301553
-0.0164116 -0.319708 -0.0766011 -0.433485 -0.178957 0.883213
0.0234753 -0.244598 -0.128619 0.528168 0.211757 -0.822312
0.084183 0.323952 0.079027 0.85541 0.446473 0.262556
0.0470534 0.171788 0.245593 0.812838 -0.536292 0.227342
-0.0195564 0.201564 -0.259879 0.0447521 0.832609 -0.552051
0.061091 0.214204 0.128979 0.911438 -0.409349 0.0413953
0.0472357 0.380588 0.0554792 0.76719 0.318369 0.556831
-0.00259061 0.0792373 0.100782 -0.499216 0.0625507 0.864217
-0.0529107 0.160849 -0.249183 -0.856947 -0.181775 0.482285
0.0127192 0.396145 0.067481 -0.0521302 -0.0874318 0.994806
-0.0293022 -0.216401 -0.123757 -0.327292 -0.138306 -0.934747
0.0119597 -0.145302 -0.0995108 0.846276 0.0104276 -0.532642
0.0237183 0.341939 -0.0730765 -0.466099 0.843689 -0.266346
-0.0275702 -0.0538152 0.0945837 -0.582125 -0.0728852 0.809826
0.0528568 -0.113581 0.0269104 0.941078 -0.0122137 -0.337969
0.0332286 0.170208 -0.200083 0.78141 -0.623598 -0.0228827
0.0646763 -0.0319081 0.0255887 0.311673 -0.865759 -0.391563
-0.029135 -0.0135713 -0.112698 -0.180364 0.25452 -0.950099
0.105816 0.0820327 -0.0271963 0.954273 0.10919 -0.278282
-0.0709589 0.172882 -0.288805 -0.506394 0.859518 -0.0692336
-0.0544907 -0.145424 -0.111604 -0.615003 0.115242 -0.780058
0.104297 0.0131821 -0.0208764 0.867924 -0.480329 -0.126458
0.0277594 0.354822 0.0875953 -0.218092 0.786491 0.577812
0.0311929 -0.416451 0.0761405 -0.882089 0.0790771 0.464399
0.00342925 -0.281545 0.0814577 -0.672841 -0.339915 0.657072
-0.00425608 -0.252862 0.0326758 -0.502384 -0.00571675 -0.864626
0.0172313 -0.242045 -0.13032 0.331136 0.216938 -0.918306
0.0425869 -0.0864782 0.0967714 0.662885 -0.199969 0.721524
0.0216826 0.127062 0.111052 -0.256117 -0.0634188 0.964563
0.0325298 0.254433 0.218369 -0.107615 0.713604 0.692234
-0.0314139 -0.172648 0.0530788 -0.851111 -0.147154 -0.50394
-0.00813307 -0.305609 0.0660225 -0.858258 0.0797584 0.506983
-0.0370805 -0.107747 -0.0435734 -0.673374 -0.0160222 0.739128
0.0125369 0.031686 0.114333 -0.0775677 0.00583044 0.99697
0.0677755 0.228789 -0.156937 0.979068 -0.0435996 -0.198807
0.0284583 -0.0374077 0.00179785 0.592466 -0.680419 -0.431293
0.00707538 0.155745 -0.155965 -0.0343741 -0.843354 0.536257
0.0912929 0.0510104 -0.0644474 0.761834 0.0255959 -0.647266
0.0088908 0.339266 -0.0241883 -0.649466 0.685765 -0.328511
0.0324082 -0.397734 0.08559 -0.517962 0.19246 0.833472
0.0358112 0.253704 0.219341 0.100263 0.651902 0.751646
-0.0168067 -0.45437 -0.162649 -0.0948344 0.873186 -0.478073
-0.0222682 -0.0895774 -0.113184 -0.208974 0.105669 -0.972196
-0.00453898 -0.174106 -0.0394108 0.0346454 -0.341848 0.939116
0.0848514 0.101357 -0.066635 0.684199 0.136179 -0.716469
0.0238095 0.123295 -0.0889978 0.0515744 0.15285 -0.986903
-0.00801908 0.284574 -0.0876609 -0.918211 0.270753 -0.289105
-0.0398758 0.101114 -0.0559398 -0.658113 0.248424 -0.710755
0.0216674 -0.124398 -0.0321489 0.695234 -0.273875 0.664562
-0.00498907 -0.116498 -0.126674 0.345294 0.0560288 -0.936821
-0.0201261 -0.474546 -0.155965 0.471196 -0.65484 -0.590897
0.0066348 -0.169366 0.0168727 -0.398375 -0.229999 -0.887918
0.0532214 -0.359086 0.0353496 -0.125272 0.126878 -0.983976
-0.0259143 0.147845 -0.285158 0.766833 -0.399664 -0.502231
-0.0240912 -0.0344604 -0.115128 -0.274552 -0.0517016 -0.960181
0.0523403 -0.468712 -0.108322 0.00570079 -0.897181 0.441626
0.077073 -0.277899 0.0674202 0.944111 0.139228 0.298781
-0.0425497 0.0812427 -0.0668174 -0.640458 0.3199 -0.698196
-0.0588052 -0.0861744 -0.0687619 -0.94339 -0.0304539 0.330285
-0.0953271 0.165468 0.331763 -0.749558 0.503578 0.429619
0.0547102 0.128034 0.108317 0.566274 -0.133543 0.813327
0.036419 -0.234267 -0.112698 0.856419 0.291987 -0.425781
0.0503653 -0.428362 -0.146971 0.483608 0.134464 -0.864895
0.0782884 0.112417 0.0875953 0.687061 -0.101028 0.719542
-0.0170877 -0.187232 -0.129348 -0.0182134 -0.171591 -0.985
-0.00437381 0.296971 0.143138 -0.879899 0.396292 0.262164
-0.0650948 -0.154174 -0.0851087 -0.98581 0.00957041 0.167593
-0.0196932 -0.0485587 0.000757184 -0.536831 -0.37116 -0.757663
-0.0452842 0.176042 -0.239217 -0.706178 0.398027 0.585566
-0.0321127 0.153193 0.213872 -0.733054 -0.250657 -0.632299
-0.023476 -0.315332 -0.109173 -0.698841 -0.0512195 -0.713441
-0.0675863 0.0831873 -0.0181722 -0.986515 0.0576906 -0.153166
0.0462938 0.194637 -0.21017 0.824335 -0.290699 -0.485763
0.0548925 -0.0363746 0.0706105 0.813822 -0.0325532 0.580202
-0.00671623 0.163402 0.113665 -0.428383 -0.217289 0.877083
0.0274556 0.387151 -0.0029345 0.229448 0.100306 -0.968139
-0.0149228 0.128764 0.233561 0.113379 -0.955743 -0.271477
0.100712 -0.499582 0.0593076 0.827435 -0.334126 -0.451343
0.0627925 -0.0340047 -0.0413857 0.674145 -0.734781 -0.0750066
0.0773768 -0.00592772 0.05475 0.779487 -0.366284 0.508169
0.0703277 -0.00481491 0.0664175 0.741227 -0.490819 0.457907
0.058174 0.293325 -0.130199 0.319474 0.718787 -0.61748
0.00450787 -0.196226 0.0267585 -0.47373 -0.206193 -0.856191
-0.0437043 -0.0633862 0.0782674 -0.912486 0.0479352 0.406289
0.0819953 -0.305123 0.0517419 0.959867 0.114223 -0.256143
0.0193734 0.140917 -0.0849871 -0.210326 0.297473 -0.931275
0.00674872 0.467852 0.0706713 -0.203824 0.451216 0.868827
-0.0620563 0.0408621 0.038783 -0.84802 -0.335034 0.410627
-0.0421547 0.188924 0.307942 0.0969785 0.771826 0.628394
-0.0184246 0.205697 -0.230467 -0.800486 0.574163 0.171926
-0.0196324 0.440141 0.0627714 -0.473597 0.0610819 0.878621
0.0119748 0.144077 0.234047 0.52127 -0.843392 -0.130258
0.0303117 -0.216644 -0.0759934 0.795983 0.136702 0.589681
0.0459292 0.401493 0.0507392 0.795585 -0.055966 0.603251
-0.0428535 -0.0954112 0.063926 -0.973714 -0.144788 0.175832
-0.0588964 -0.0112469 -0.0750819 -0.98868 0.147439 -0.0278195
0.0711177 -0.0212585 -0.0173822 0.490508 -0.865935 0.0977666
-0.0387972 -0.140198 0.0600064 -0.970907 -0.0739008 -0.227768
0.0857629 -0.355196 0.0403478 0.61041 -0.0701747 -0.788971
0.0214243 -0.372455 -0.133845 -0.34205 0.215363 -0.914669
0.0561687 0.0354537 -0.0930085 0.481376 0.0110261 -0.876445
0.0749462 -0.290782 0.0392996 0.802969 0.197269 -0.562429
-0.0255649 -0.0143689 0.0956168 -0.586389 0.106231 0.803034
0.00172014 0.331487 -0.0293232 -0.670316 0.706783 -0.226128
0.0338971 0.239727 -0.199961 -0.146548 0.797874 -0.584739
-0.00563092 -0.170339 0.0926999 -0.442691 -0.16421 0.88151
0.0534037 0.462261 0.00171429 0.744193 0.36747 -0.557801
-0.0390403 0.144685 -0.244808 -0.696339 -0.586218 0.414077
-0.0492342 -0.178603 -0.0643866 -0.659084 -0.158799 0.735113
0.0249337 -0.469684 -0.129713 0.0960461 -0.993149 0.0665562
0.0353251 0.172395 0.16708 0.219025 -0.862642 -0.455935
0.0330159 0.399305 0.0596418 0.383621 -0.17759 0.906254
0.0425869 -0.325541 -0.131293 0.54007 0.195416 -0.818619
-0.0302897 0.344613 0.0361244 -0.995695 0.0237509 0.0895962
0.0822384 -0.427389 -0.110753 0.981144 0.18874 0.0416357
0.0857022 0.311555 -0.0532052 0.89798 0.281074 -0.33857
-0.0104697 0.379373 0.0583961 -0.447429 0.0442851 0.893222
-0.0375515 0.0965564 0.0671771 -0.841808 -0.0405234 0.538253
0.0305851 -0.0539063 -0.0181722 0.753064 -0.424892 0.502355
0.00232786 -0.37367 -0.134453 -0.602704 0.0621869 -0.795538
-0.070412 0.129128 -0.294395 0.382413 -0.852512 0.356348
0.00914909 0.337321 -0.0326047 -0.628782 0.757429 -0.175883
0.0437112 -0.410131 -0.087114 -0.137132 0.0171859 0.990404
-0.0674647 0.181511 0.306969 -0.29285 0.947139 0.131022
0.0586602 -0.387768 -0.0917932 0.604722 0.26591 0.750735
0.0627317 -0.350578 0.0358358 0.126411 -0.0221901 -0.99173
-0.0171333 -0.243504 0.0769912 -0.845966 -0.313927 0.431034
0.0268479 0.172031 0.117372 0.00836456 -0.343788 0.93901
-0.0293477 0.175434 0.237329 -0.793889 0.543214 -0.273239
0.028914 0.336349 0.136635 0.00184217 0.850563 0.52587
-0.0379313 -0.0808875 0.0835238 -0.858547 -0.140069 0.493233
0.0344743 0.184792 -0.223782 0.813578 -0.308704 -0.492741
0.0170642 0.230247 -0.195707 -0.479306 0.655532 -0.583562
0.00128717 0.0161597 -0.104919 -0.125897 0.0588726 -0.990295
0.0529784 0.240578 0.219098 0.666185 0.513496 0.540851
0.0150436 0.339995 0.0933683 -0.693929 0.477268 0.539145
0.109949 0.241428 0.00895713 0.99128 -0.00284172 0.131743
2.62486e-05 0.209707 -0.198381 -0.758108 0.651294 0.0330035
-0.0551895 -0.0500779 -0.09945 -0.65819 0.123813 -0.742601
0.0337452 0.181875 -0.223175 0.828263 -0.352496 -0.435576
0.0430123 0.275094 -0.158031 0.210808 0.588379 -0.780622
0.0304029 -0.0670931 -0.0776341 0.773436 -0.325042 -0.544191
0.0151348 0.17118 0.282662 0.548178 -0.132006 0.825879
-0.0466819 0.236932 0.0212817 -0.980223 0.195979 0.0274938
0.0654055 -0.443918 -0.0940416 0.220027 -0.157556 0.962686
0.113838 0.234622 -0.015073 0.945415 0.020909 -0.325197
-0.0617525 -0.0572486 -0.0843187 -0.974861 0.0214914 -0.221773
0.0402777 0.483894 0.0135983 0.470025 0.843892 -0.258692
0.0819953 -0.439057 0.0440395 0.511335 -0.00677563 -0.859355
-0.0520903 0.140674 0.0520458 -0.920681 -0.0382588 0.388436
0.0506995 0.126454 0.116764 0.245995 -0.164773 0.955163
0.108004 0.194758 -0.0284724 0.897843 -0.0444727 -0.438063
-0.0412735 0.451809 0.0469868 -0.820377 0.210055 0.531845
-0.0396024 0.180781 0.0765051 -0.858778 0.111028 0.500173
-0.011723 -0.47333 -0.155235 0.416038 -0.757193 -0.503559
0.0293698 0.180174 -0.229738 0.804921 -0.230985 -0.546578
0.0774984 -0.419368 -0.0967762 0.779756 0.132818 0.611834
0.0762223 0.195366 -0.0598897 0.731189 -0.105596 -0.673952
0.0086022 -0.396033 -0.132265 -0.972116 0.104769 -0.209793
0.038637 0.357253 -0.0218791 -0.198861 0.824905 -0.529137
0.050973 -0.127193 0.0504658 0.99514 0.0851923 0.0493907
0.018872 -0.439786 0.0604014 -0.807068 0.423864 -0.411072
0.00351279 0.214569 -0.21017 -0.57208 0.80455 -0.159444
0.0518845 -0.303179 -0.104919 0.961465 0.257759 -0.0956296
0.0568979 0.031048 0.0940975 0.49908 -0.000837473 0.866556
0.0638255 -0.00305239 0.0747732 0.669736 -0.491429 0.556733
0.00421927 0.187223 0.289225 0.479133 0.42461 0.768205
0.0566548 -0.0261503 0.0109549 0.365509 -0.831923 -0.417501
0.0553179 -0.45437 -0.0974446 -0.171659 -0.517197 0.838475
0.0444403 -0.295886 -0.119261 0.843284 0.187121 -0.503843
-0.101586 0.166562 0.311588 -0.841735 0.474981 -0.25666
0.0344743 -0.424959 0.0430368 -0.653366 0.11037 -0.748954
-0.0187816 -0.449752 -0.150009 -0.161575 0.961671 -0.221546
-0.0447677 -0.0985104 -0.109902 -0.340891 0.156047 -0.927061
0.0611517 -0.0126825 0.074682 0.722453 -0.374013 0.581529
0.0799291 -0.0166553 0.00345378 0.604971 -0.759551 -0.238939
0.0338667 -0.362246 -0.141745 -0.258914 0.167863 -0.951202
-0.000391564 0.357253 0.0739224 -0.404582 0.175506 0.897503
-0.0380984 0.428717 0.0529877 -0.659811 0.0349118 0.75062
0.103568 0.0701829 -0.04093 0.923132 0.0707371 -0.377921
0.00377107 -0.486942 0.105036 -0.218891 -0.94383 0.247529
0.0128256 0.248113 0.213386 -0.62129 0.52307 0.583436
0.0264833 -0.300991 0.0824908 -0.287591 -0.0800576 0.954402
0.0936628 0.0129238 -0.0476753 0.771459 -0.404789 -0.490914
0.0075995 -0.364676 -0.125094 -0.702068 0.0900318 -0.706396
0.0402169 -0.320194 0.0280726 -0.204424 -0.150166 -0.967296
0.0695985 0.23681 0.174737 0.982597 -0.161222 0.0922505
-0.0297883 -0.134364 -0.120597 -0.322553 0.166488 -0.931795
0.101745 0.30086 -0.017443 0.936122 0.258687 -0.238235
-0.031824 0.134354 -0.28686 0.741351 -0.552534 -0.380926
0.00339126 -0.450967 -0.163135 -0.0963202 0.622836 -0.776401
0.0411589 0.461289 -0.0108344 0.434854 0.293955 -0.851171
0.0771338 -0.398464 -0.107228 0.928382 0.333345 0.164278
-0.0205439 0.00378955 0.0946445 -0.670885 0.0748579 0.737773
0.0783492 0.176771 -0.0553929 0.663355 -0.0119859 -0.748209
-0.0496596 0.021325 -0.0261329 -0.997462 0.0223703 0.0675964
0.0564118 -0.372941 -0.142596 0.614543 0.337333 -0.713122
0.0260579 -0.147854 0.0141168 0.190349 -0.126842 -0.973488
0.104662 0.100081 -0.023459 0.973607 0.104412 -0.202945
0.0627925 0.214083 0.166837 0.952576 -0.303036 0.0277106
0.0394878 0.277039 -0.157302 0.0128162 0.737545 -0.675176
0.00038323 -0.0584032 0.108196 -0.169394 0.0231664 0.985276
-0.0307606 0.23365 -0.0572767 -0.771381 -0.195893 -0.605473
-0.0194653 -0.200844 -0.0527191 -0.244344 -0.382521 0.891052
-0.039967 -0.029918 0.0166629 -0.892298 -0.361129 -0.270907
-0.0458616 0.147602 -0.259393 -0.782193 -0.413943 0.465644
-0.0128833 -0.302449 0.0441307 -0.98426 0.00911343 -0.176491
0.0184467 -0.216523 0.0995667 0.20016 0.0223345 0.979509
-0.0130542 0.227938 -0.146606 -0.950217 0.307204 0.0520954
-0.0125415 -0.44562 -0.147943 -0.269903 0.926392 -0.262585
0.0767084 0.274608 -0.111239 0.934345 0.172778 -0.311684
0.0112 -0.13485 -0.0321489 0.686768 -0.336624 0.644231
0.0680793 0.0154609 -0.0716181 0.544483 -0.327505 -0.772191
0.0664385 0.253461 -0.155235 0.798375 0.373452 -0.472367
-0.0353486 0.376699 0.0124228 -0.463193 -0.582206 -0.668198
-0.0631502 0.0410748 0.0433103 -0.898282 -0.332033 0.287826
0.0753715 -0.423014 -0.126188 0.865092 0.18935 -0.464502
-0.0463781 0.386908 0.0161125 -0.690674 -0.448996 -0.566897
-0.0263245 -0.172405 -0.045518 -0.407225 -0.220086 0.886414
0.0186897 0.339995 -0.0569121 -0.60317 0.782477 -0.15465
0.108247 0.128764 0.0338608 0.993396 -0.0236661 0.112273
-0.00609427 -0.176416 -0.0401096 0.0346454 -0.341848 0.939116
0.0727585 0.347044 -0.0349139 0.626407 0.742806 -0.236335
0.0823599 -0.413534 -0.11525 0.978615 0.192297 -0.0730348
-0.0142278 0.203023 -0.21649 -0.725456 0.659313 0.197535
0.0103189 -0.32068 -0.070585 0.078506 -0.088929 0.992939
0.0183251 0.216756 -0.232898 0.0210966 0.592704 -0.805144
-0.0289071 0.290651 0.0273434 -0.884487 0.46641 0.0120196
0.0119748 0.18698 -0.134453 -0.144498 -0.423226 0.894427
-0.0298795 -0.121116 0.0399225 -0.843534 -0.0811984 -0.530903
-0.0804996 0.126819 0.297976 -0.43629 -0.659082 -0.612586
0.0538595 0.401249 0.0197264 0.887783 -0.203605 -0.412779
0.0558649 0.0135315 0.097136 0.379453 -0.217499 0.899283
0.0123546 0.33805 -0.038955 -0.645388 0.748939 -0.150215
0.0769515 -0.443675 -0.132873 0.720802 -0.0216869 -0.692802
-0.0348929 0.13399 -0.243593 -0.299323 -0.953834 0.0246216
-0.042337 0.189654 0.296274 -0.137238 0.844041 0.518421
0.0489676 -0.488401 0.0869269 0.382231 -0.574492 0.723781
-0.0181056 -0.269391 -0.127403 -0.787189 -0.0931969 -0.609629
0.0807191 0.212989 -0.0560613 0.768011 -0.0811276 -0.635277
0.0795645 -0.438085 0.0848 0.549429 0.11765 0.827216
0.0226701 -0.0367089 -0.100118 0.661026 0.060696 -0.747904
-0.0656113 0.105185 -0.0189622 -0.983903 0.0894008 -0.154732
0.0654055 0.184428 0.0993236 0.813673 -0.115292 0.569775
0.0525833 -0.301234 -0.100544 0.96072 0.276482 -0.0239835
-0.0162749 0.0882311 -0.082921 -0.480773 0.32062 -0.816125
-0.0306542 -0.477706 -0.133723 -0.158059 -0.823993 0.544107
-0.0234987 0.147723 0.207552 -0.327103 -0.708235 -0.625625
0.0112912 0.19889 0.128249 -0.454625 -0.634021 0.625566
-0.00420477 -0.460447 -0.113548 -0.341187 -0.0236042 0.939699
-0.00146257 0.282386 -0.117194 -0.65289 0.477865 -0.587689
0.0877075 -0.416451 0.0289538 0.604854 -0.0876416 -0.791499
0.0280025 0.224778 -0.220136 0.050655 0.705381 -0.707016
-0.0221847 0.284574 0.0740743 -0.874744 0.362893 0.321141
-0.021144 0.232799 0.108925 -0.928489 -0.0490039 0.368113
0.011671 -0.0527517 0.110323 0.292108 0.00303899 0.95638
0.00173536 -0.296372 -0.066635 -0.00321513 -0.161305 0.986899
0.0218497 -0.267933 0.0892968 -0.0742602 -0.180006 0.980858
-0.0468338 0.449621 0.0378715 -0.906488 0.209697 0.366479
0.000968114 0.216878 -0.092097 -0.693194 -0.718483 -0.0571424
0.0573233 -0.272794 0.088993 0.321012 -0.00669899 0.947051
-0.0107355 0.0320811 0.10376 -0.530446 0.0416772 0.846694
0.0217281 0.458858 -0.0169568 0.0783385 0.202039 -0.976239
-0.0426104 -0.477949 -0.158152 -0.820515 -0.345914 -0.455081
0.0413108 -0.373184 -0.13822 -0.306105 0.396848 -0.865339
-0.0220555 -0.462878 0.0948268 -0.367851 0.323726 0.871715
-0.0124883 0.365031 0.0515596 -0.754349 0.174788 0.632777
0.023141 -0.316305 -0.0756288 0.297029 0.0370469 0.954149
0.0020468 0.0760166 0.105826 -0.419604 0.0353638 0.907018
-0.0651252 -0.124459 -0.088694 -0.999998 -0.000174197 0.00198747
0.00851105 0.434064 0.0738616 -0.191481 -0.0626127 0.979497
0.048998 -0.0250261 -0.0113509 0.0629138 -0.995478 0.0711688
0.0610302 -0.267933 0.0875345 0.448068 0.042349 0.892996
-0.04653 -0.478435 -0.155722 -0.946532 -0.211546 -0.243569
-0.00448202 0.220767 -0.119017 -0.892808 -0.302887 0.333395
-0.0185158 -0.279357 -0.123028 -0.810927 -0.129665 -0.570599
0.0565333 -0.399679 0.0782977 0.188951 -0.0743321 0.979169
0.0329248 -0.00251757 -0.0929478 0.464366 -0.219367 -0.858046
-0.0232177 0.404409 0.0629233 -0.367153 -0.140421 0.9195
0.0280936 0.00552523 0.100417 0.343992 -0.144914 0.927723
0.0414019 -0.36103 0.0740743 -0.503476 0.254608 0.825643
0.00285198 -0.431035 -0.123636 -0.801702 0.469388 0.370066
0.0118685 0.22891 0.228092 -0.71317 0.510075 0.480846
-0.0162445 -0.460447 0.0887499 -0.258167 0.7134 0.651467
0.0434377 0.189897 -0.211629 0.823168 -0.323677 -0.466506
0.0383939 -0.26769 0.0278219 0.0964301 0.0321118 -0.994822
0.035234 0.192692 0.144232 0.162883 -0.97268 -0.165418
0.0824206 0.266344 -0.0665743 0.958453 -0.223698 -0.176994
0.057931 0.242765 0.209861 0.782978 0.39879 0.4774
-0.0180752 -0.294914 -0.110996 -0.909037 -0.0450885 -0.414268
0.0816915 0.0308049 0.0793916 0.633862 -0.0508648 0.771771
-0.0264156 -0.484269 0.0623764 -0.260148 -0.884513 -0.387246
-0.0440081 -0.461177 -0.167268 -0.620982 0.416749 -0.663854
0.0491803 -0.240587 0.0281638 0.378543 0.0277248 -0.925168
0.0623671 0.368191 0.0133894 0.82324 0.515065 -0.238712
0.0133421 -0.201574 0.0230136 -0.330256 -0.168006 -0.928819
0.0459292 0.17908 0.257625 0.832314 -0.491288 0.256691
0.0346566 -0.140684 0.0158073 0.511698 -0.0590364 -0.857135
-0.017027 0.215419 -0.0649335 -0.729621 -0.188046 -0.657489
-0.00644659 -0.0674577 -0.0152553 -0.0792134 -0.953066 0.292217
0.0639471 0.277039 0.172914 0.813558 0.341174 0.470874
0.0261794 0.253461 -0.18331 -0.224027 0.747693 -0.625114
-0.0637883 0.15538 -0.311897 -0.0270314 0.221862 -0.974703
0.00560933 -0.155997 0.100964 -0.420154 -0.167899 0.891785
0.0215611 -0.338181 -0.14138 -0.0851444 -0.0236863 -0.996087
0.065284 0.345829 0.0855292 0.666727 0.692271 0.276108
0.109584 0.0393125 0.00336263 0.995421 -0.0953542 -0.0066238
0.0277898 0.20752 0.266376 0.34152 0.522194 0.781459
-0.0200957 0.329543 0.0410467 -0.844179 -0.495633 0.204228
0.0355378 0.278983 -0.154749 -0.21073 0.771982 -0.599698
-0.0055151 0.286032 -0.111482 -0.836263 0.316839 -0.447524
0.0395485 -0.195618 0.0181835 0.355904 -0.114662 -0.927462
-0.0544907 -0.482567 0.0965283 -0.528313 -0.788256 -0.315497
-0.036093 0.046392 -0.0858986 -0.623452 0.205222 -0.754448
0.10448 0.250301 0.0722209 0.886891 0.0223067 0.461441
-0.0381743 -0.0338527 0.0869269 -0.722343 0.0471126 0.689928
0.0250856 -0.463364 -0.166052 0.300701 -0.599614 -0.741649
0.0103796 0.143713 0.198437 0.153061 -0.889215 -0.431126
0.00252531 0.31909 0.0948875 -0.791871 0.504372 0.34431
0.0368443 0.174583 -0.178206 0.746806 -0.663962 0.037883
0.058174 -0.218103 0.0416088 0.837811 0.0777869 -0.540391
0.0332893 -0.391414 0.0217109 -0.348355 -0.0815362 -0.93381
0.00431803 -0.100455 0.104671 -0.0923202 -0.0281642 0.995331
0.0345351 -0.219804 -0.0827387 0.797456 0.219083 0.562197
-0.0451627 -0.465309 0.0918491 -0.653149 0.70189 0.284158
0.0852768 -0.439543 -0.108201 0.982742 0.147047 0.112225
-0.061631 -0.0554255 -0.0824348 -0.994381 0.0359769 -0.0995558
-0.0260814 -0.334292 -0.0890586 -0.771074 -0.390431 0.502999
0.0891659 -0.0160172 0.021107 0.854449 -0.513726 -0.0774744
-0.0373236 -0.0813129 0.0839492 -0.858547 -0.140069 0.493233
0.0801723 0.170815 -0.0505922 0.673387 0.00248271 -0.739286
0.0484815 -0.271093 0.0295614 0.171913 0.0462737 -0.984025
0.0967013 0.299645 -0.0345797 0.907589 0.17707 -0.380695
-0.021182 0.445489 -0.00854039 -0.414313 0.00749242 -0.910103
-0.0456488 -0.0119533 0.00888117 -0.93125 -0.330771 -0.152852
0.0243564 -0.175565 0.100296 0.0765071 -0.0533003 0.995643
-0.0422154 0.118615 0.0691521 -0.851344 -0.138553 0.505981
0.0685047 0.315687 0.121747 0.851758 0.376935 0.363906
0.106181 0.216999 -0.0281382 0.890889 -0.0245708 -0.453555
0.0638255 0.213232 0.134022 0.917179 -0.39845 -0.00446972
0.0119444 -0.371239 -0.0983562 -0.421211 -0.690256 0.588326
-0.00379457 0.0162813 0.109715 -0.4798 -0.0510239 0.875893
-0.00660704 -0.275468 0.058943 -0.906189 -0.317413 0.279412
-0.0449196 0.243981 0.0178293 -0.980471 0.19435 0.0300781
0.0533733 -0.150771 0.0357598 0.943742 0.117344 -0.309163
0.0919613 -0.00891108 0.0248291 0.938881 -0.327691 0.10546
-0.0373084 -0.0640243 0.0851038 -0.798279 -0.0208857 0.601926
-0.0492646 -0.250675 -0.105041 -0.995704 -0.0810727 -0.0447192
0.025359 -0.129016 -0.0760542 0.920036 0.0575051 -0.387591
-0.019245 0.442329 -0.00934557 -0.397924 -0.011154 -0.91735
-0.00730256 0.398089 -0.00703637 -0.0740614 -0.354227 -0.932222
0.0624886 -0.414263 -0.0887548 0.352953 -0.0817847 0.93206
-0.0535184 0.123416 -0.277866 0.1777 -0.958504 0.222917
-0.0224125 0.27558 -0.069795 -0.894006 0.152696 -0.421234
-0.102984 0.153436 0.320095 -0.813643 0.56595 -0.132985
-0.0388884 -0.17362 0.0688482 -0.997891 -0.0200189 -0.0617447
0.0425869 0.188924 0.264432 0.713102 0.0973158 0.694273
-0.0201489 0.304749 0.0347116 -0.902539 0.427365 -0.0527442
-0.0473504 0.0357272 -0.00705156 -0.915005 -0.390912 -0.099767
-0.0110849 0.206669 -0.136519 -0.906438 -0.237903 0.348958
-0.00795116 0.236688 0.186891 -0.849686 0.38137 0.36413
0.0530391 0.450107 0.061313 0.751743 0.248805 0.610719
0.0299775 0.334404 -0.0941024 -0.274148 0.818062 -0.505585
0.0592071 0.073039 -0.0850479 0.480356 0.0312342 -0.876517
0.108126 0.157933 0.0430216 0.98557 -0.0549342 0.160104
-0.0476238 0.375241 0.0267281 -0.793195 -0.535807 -0.289402
-0.00324387 0.293811 -0.106438 -0.821196 0.47232 -0.320236
0.0534037 0.347287 0.104732 0.3522 0.841888 0.408875
0.0172921 -0.221263 -0.123028 0.471318 0.393366 -0.789381
0.0460508 -0.33964 -0.0794572 0.577737 0.162383 0.799907
-0.0434004 0.256864 0.0396642 -0.968321 0.246162 0.0419341
0.0512768 -0.452426 0.0970144 0.0842734 0.079735 0.993247
0.00721207 -0.195254 -0.0500452 0.308878 -0.419469 0.853604
0.0558041 0.374997 0.0182718 0.859901 0.477841 -0.179548
-0.00103721 0.216999 -0.230588 -0.32343 0.934023 -0.151635
-0.0145772 0.15538 0.19552 -0.453311 -0.521604 -0.722799
0.000307306 0.443301 -0.0146476 -0.19209 -0.0175286 -0.981221
-0.0609929 -0.0501387 -0.0734411 -0.991934 -0.0664433 0.107945
0.0158336 -0.146761 -0.096047 0.839543 0.0312405 -0.542394
0.0886798 0.327841 0.0260141 0.847362 0.519019 0.112236
-0.0114628 0.237539 -0.0891801 -0.869415 -0.231311 -0.436593
-0.0171105 0.197554 0.291413 -0.0476578 0.9811 0.187543
0.00873889 -0.472115 -0.133116 0.130108 -0.986181 0.102565
0.0136155 0.175555 -0.0676681 -0.12115 -0.377668 -0.917981
0.0513984 -0.0290368 -0.0649335 0.682799 -0.545671 -0.485827
-0.0382655 0.263184 0.0610395 -0.9089 0.318778 0.268852
-0.0136619 0.0462705 -0.101334 -0.422143 0.136492 -0.896195
0.0141473 -0.00922252 0.106373 0.263586 0.0115469 0.964567
0.0838183 0.289679 -0.0732588 0.974334 0.0314985 -0.222892
0.0332286 0.170208 -0.200083 0.78141 -0.623598 -0.0228827
-0.00335024 -0.305123 -0.0688227 0.00545258 -0.18537 0.982654
0.0509426 0.290165 0.179599 0.415283 0.621456 0.664329
0.0164717 0.423369 0.0755632 -0.0558815 -0.209071 0.976303
-0.00655763 -0.270607 -0.135303 -0.30748 -0.101101 -0.946169
0.108551 0.13958 0.0160769 0.997596 0.0235895 -0.0651647
0.049788 -0.4393 0.0339064 -0.260453 0.0909801 -0.96119
-0.0764889 0.109865 -0.297798 0.56385 -0.769319 0.300369
-0.115563 0.100992 0.315477 -0.525469 0.845879 -0.0914914
-0.046925 0.0935787 -0.0537521 -0.709838 0.282303 -0.645318
0.0998612 -0.475761 0.0523496 0.880822 -0.165151 -0.443709
-0.0494773 0.017922 0.00430454 -0.998122 -0.0415895 0.0449701
0.0305244 0.348259 -0.0572767 -0.40032 0.905755 -0.139111
-0.0178245 -0.445863 -0.129956 -0.601554 0.697424 0.38953
0.0865529 0.328327 -0.0367066 0.830249 0.465669 -0.306332
-0.0403317 -0.485241 0.104793 0.0984587 -0.967484 -0.23298
0.0544064 -0.189177 0.0799993 0.896515 -0.0602212 0.4389
-0.0472896 0.230004 0.0119348 -0.977974 0.198097 0.0657558
-0.0148507 0.237904 0.1133 -0.936331 0.00237922 0.351112
0.0453519 0.453753 0.0673898 0.562215 0.205748 0.800988
-0.0130276 0.134111 0.216303 -0.0894272 -0.862995 -0.497235
-0.011835 -0.160737 0.090816 -0.462053 -0.142982 0.87525
0.0601794 -0.0184403 0.0738009 0.744926 -0.234388 0.624617
0.0833322 -0.323597 0.0436901 0.921828 0.178904 -0.34384
0.0561079 -0.333563 0.0932468 0.00167977 -0.104693 0.994503
-0.0239089 -0.227218 -0.123636 -0.511964 0.0233337 -0.85869
0.0369962 0.188195 -0.221716 0.806692 -0.196737 -0.557263
0.0390016 0.160242 0.197829 0.587749 -0.781202 -0.210415
0.054133 -0.190028 0.0747124 0.908409 -0.0214296 0.417533
0.0183707 -0.0840475 0.104914 0.122626 -0.122182 0.984903
-0.0380832 0.137636 -0.248211 -0.27808 -0.958938 0.0557564
0.0377559 0.397117 0.00296004 0.65866 -0.278752 -0.698902
-0.0370501 0.199377 -0.0510175 -0.598551 -0.00576952 -0.801064
0.0300383 0.389096 -0.00133933 0.353102 0.172497 -0.919545
0.0191607 -0.375858 -0.13664 -0.592508 0.664172 -0.455862
-0.0601118 0.170451 -0.30582 -0.0209063 0.740543 -0.671683
0.0628532 0.209464 0.135299 0.890141 -0.455237 -0.0202016
-0.0413343 -0.466767 -0.133359 -0.461048 0.126333 0.878337
0.000968114 0.350204 -0.0109104 -0.539598 0.0846572 -0.837656
-0.0578937 -0.051354 -0.0973839 -0.749116 0.100484 -0.654774
0.0978559 0.286519 0.0726463 0.932528 0.185229 0.30997
0.109159 0.226601 0.0426722 0.996685 0.065616 -0.0481005
0.0038926 -0.428362 -0.14138 -0.889715 0.421294 -0.175836
0.0264833 -0.335021 0.0766874 -0.554395 -0.512527 0.655715
-0.059261 -0.212877 -0.0928262 -0.92727 -0.368697 0.0650626
-0.0176346 -0.258939 0.0746516 -0.857508 -0.321047 0.402005
-0.00114739 0.360413 -0.0129613 -0.411952 0.0955367 -0.906183
-0.0601725 0.178229 -0.301931 -0.0115061 0.803887 -0.594671
-0.0371716 0.278011 0.00931414 -0.921548 0.386916 0.0323243
-0.0449804 0.191477 -0.25842 -0.617618 0.761363 0.197167
-0.0223366 0.481707 0.0452701 -0.4291 0.717587 0.548581
-0.0403924 -0.472601 0.0654148 -0.93767 -0.122463 -0.325237
-0.041395 0.390797 0.0464247 -0.762943 -0.31049 0.567022
0.0599971 0.460559 0.0191396 0.897658 0.420068 -0.133242
0.0217737 0.313014 -0.117073 -0.19021 0.495573 -0.847483
0.0363278 0.181754 -0.218435 0.816072 -0.38824 -0.428131
0.0473269 -0.283246 -0.106135 0.98865 0.142288 -0.0482122
0.037057 -0.41402 0.0901476 -0.229339 0.164032 0.959426
-0.0173839 -0.0473129 4.31544e-05 -0.599261 -0.409232 -0.688052
0.0272733 0.294297 0.182759 -0.14773 0.633459 0.759543
0.00855659 0.0700614 -0.100362 -0.0824632 0.320458 -0.943667
-0.0721135 0.148696 0.295302 -0.501145 0.0353098 -0.864643
0.0601186 -0.175322 0.0503139 0.993376 0.0919011 -0.0689797
0.014755 -0.0504425 -0.00668695 0.722985 -0.68675 0.0752857
-0.119209 0.127062 0.340757 -0.840659 -0.366914 0.398331
-0.00393893 -0.22187 -0.0633535 0.0848153 -0.298648 0.950587
0.0276683 -0.26769 -0.130807 0.417385 0.174519 -0.891814
-0.00770279 0.257836 -0.137248 -0.872962 0.289259 -0.392767
-0.0446462 0.191234 -0.048283 -0.711432 0.0364469 -0.701809
-0.00191077 0.480248 -0.00386122 -0.158203 0.728002 -0.667072
-0.0509053 -0.230621 -0.0802472 -0.6904 -0.325005 0.646312
-0.0385086 0.150154 0.0751074 -0.847091 -0.0286571 0.530674
0.0824206 -0.427875 -0.11051 0.981144 0.18874 0.0416357
0.04283 0.264885 -0.163743 0.271735 0.666075 -0.694626
-0.0461046 -0.204247 -0.0691265 -0.552768 -0.185543 0.812417
-0.0444031 0.0281919 0.0438572 -0.887118 -0.429273 0.169546
0.0607263 0.202901 0.226634 0.988612 -0.0530879 0.140811
0.0743384 0.211409 -0.0596467 0.743001 -0.0971674 -0.662199
-0.0326748 0.186251 0.274884 -0.528696 0.775522 -0.345031
-0.0195184 0.188924 -0.0674858 -0.498074 -0.0932927 -0.862101
0.0543457 -0.238764 0.0854684 0.426046 0.174129 0.887786
0.0492107 0.160606 0.120289 0.277612 -0.11918 0.953272
-0.00151199 -0.246056 0.0320681 -0.426098 -0.00633232 -0.904655
0.06893 0.249085 0.179842 0.942222 0.156726 0.296064
0.0318309 0.16802 -0.206767 0.768732 -0.60812 -0.198092
-0.0482011 0.453024 0.0216653 -0.980266 0.181063 -0.0793403
-0.0499938 0.0408621 -0.0400488 -0.921259 -0.38895 -0.000512614
0.034292 -0.289809 0.0844961 -0.0314636 -0.147169 0.988611
-0.050723 -0.209474 -0.0727727 -0.700671 -0.229121 0.675695
0.0496057 -0.0923727 0.0672987 0.985067 -0.0814497 0.151686
0.038242 0.263427 -0.165931 0.151283 0.662624 -0.733514
0.0194341 0.136177 -0.0865063 -0.164982 0.332571 -0.928535
0.103811 0.274365 0.0550234 0.979425 0.186531 0.0770299
0.0705708 -0.289809 0.0818831 0.713742 0.0473324 0.698807
0.0355986 -0.419368 0.0926391 -0.389547 0.144712 0.909567
-0.0451323 -0.147004 -0.117559 -0.415161 0.0882626 -0.905456
-0.0584103 -0.154782 -0.0742311 -0.857636 0.00898741 0.514179
0.035872 -0.115951 0.0131217 0.41851 -0.0945869 -0.903274
0.0214699 -0.343043 0.0636829 -0.893174 -0.36764 0.259
0.00333049 0.315201 -0.0937378 -0.677271 0.638433 -0.365661
0.0627317 0.307909 -0.107715 0.637779 0.563741 -0.524818
-0.0217896 0.236202 -0.0739273 -0.828481 -0.209028 -0.519544
0.0553179 -0.159522 0.0771127 0.882281 0.168655 0.439471
-0.00748105 -0.46385 0.0934898 0.0711246 0.264099 0.96187
-0.0051486 -0.00752102 -0.105588 0.233721 0.156631 -0.959605
0.0230347 -0.167422 -0.0818272 0.961655 0.0327733 -0.272295
0.020528 0.351662 -0.0142678 -0.431613 0.360234 -0.827008
-0.00805517 0.13399 -0.221716 0.249583 -0.966498 0.0599169
-0.0379768 -0.140927 0.058153 -0.960004 -0.0893269 -0.265356
-0.00827579 -0.184802 -0.129348 0.131677 -0.119757 -0.984032
0.00766026 -0.278142 -0.0635358 -0.187593 0.0277293 0.981855
0.0252071 -0.191608 -0.0899094 0.944655 0.327186 0.0240245
-0.0165408 0.0643491 0.0957991 -0.575467 0.166137 0.800772
0.0248122 0.32614 -0.103278 -0.30668 0.696181 -0.64906
-0.0689232 0.167169 0.341486 0.0959469 0.521543 0.847813
-0.102559 0.129979 -0.292694 -0.879025 0.213657 0.426222
-0.0220403 -0.155147 -0.124244 -0.201345 0.0715704 -0.976902
-0.0239393 0.431634 0.0621637 -0.467157 0.0680543 0.881551
-0.0161154 0.237175 -0.082131 -0.814384 -0.213922 -0.539459
0.0306763 -0.22029 -0.0745957 0.681756 0.123624 0.721059
0.0389712 -0.0255427 -0.00911769 0.313415 -0.936462 0.157513
-0.0648821 0.131559 0.00147121 -0.993854 0.0981212 0.0512505
-0.00202088 -0.211297 -0.126917 0.0804244 0.0850188 -0.993128
0.052158 -0.469198 -0.103582 -0.0228874 -0.883202 0.468435
0.00966559 -0.146396 -0.101577 0.848926 0.0360647 -0.52728
-0.0294693 0.0238621 0.0911199 -0.70828 -0.0862308 0.700645
0.0116102 -0.397977 -0.110753 -0.887552 -0.363846 0.282608
0.0826029 0.0828835 -0.0701596 0.638027 0.0502345 -0.768374
0.0759185 0.229639 0.0984729 0.839542 -0.273274 0.469565
0.0221687 -0.412319 0.0782674 -0.911102 0.00213272 0.412177
0.0490892 0.044417 0.0982906 0.541238 -0.0179712 0.840678
0.0664994 0.289192 0.151524 0.888062 0.305629 0.343419
0.0655878 0.342426 -0.0609228 0.608184 0.733535 -0.303377
0.0514592 -0.257967 0.028855 0.233581 0.030328 -0.971864
