ply
format ascii 1.0
element vertex 815
property float x
property float y
property float z
property float nx
property float ny
property float nz
element face 0
property list uchar int vertex_indices
end_header
0.0332505 0.177569 -0.139688 0.285501 -0.924857 0.251256
-0.0607835 0.119188 0.0199577 -0.96459 0.102726 0.242925
0.0186857 0.00119054 0.108702 0.192962 -0.191664 0.962305
0.0526398 0.185458 0.244458 0.813041 -0.574986 0.091403
-0.00984461 -0.210462 0.0820003 -0.444778 0.00961626 0.895589
0.0280617 0.268113 -0.158986 -0.651029 0.618992 -0.439329
0.0476635 -0.350891 -0.132648 0.830339 0.302016 -0.468319
-0.0306829 0.183637 -0.250745 -0.576249 -0.784135 0.230368
0.0567059 0.451144 0.0490171 0.909826 0.207006 0.359675
0.100582 0.294087 -0.0277515 0.92081 0.179562 -0.346217
0.0297913 0.326372 0.160954 -0.061028 0.820351 0.568594
0.0733947 0.220049 -0.152918 0.826354 -0.562815 0.0194489
-0.0219668 -0.265444 -0.0715976 -0.212295 -0.120346 0.969767
-0.0295299 -0.0478822 -0.0275391 -0.665835 -0.371965 0.646766
-0.00520208 0.19711 0.306602 0.561351 0.0120344 0.82749
-0.0976809 0.175263 -0.304634 -0.922091 -0.181892 0.341561
0.0018603 -0.22891 -0.0898643 0.785793 0.135306 0.603508
0.0203849 -0.390944 0.0279361 -0.444396 -0.394853 -0.804117
-0.0878497 0.192012 0.310971 -0.641251 -0.0692301 -0.764201
0.0137852 -0.289718 -0.137018 0.625816 0.142982 -0.766753
-0.0375405 -0.18558 -0.135683 0.228063 -0.0377683 -0.972914
0.0693287 -0.413762 -0.122089 0.926291 0.0934094 -0.365047
0.0704817 0.242261 0.145054 0.971264 -0.212474 0.107247
-0.036964 0.340694 0.0472268 -0.925916 -0.157026 -0.343545
-0.00278983 0.172835 0.299319 0.442214 -0.495563 0.747572
-0.0962852 0.185094 0.367045 0.440382 -0.191507 0.877148
-0.0699168 0.0566202 0.0278147 -0.953624 -0.213362 0.212317
0.0958487 0.0948528 0.0726849 0.779506 -0.0810946 0.621124
-0.135367 0.175384 0.326749 -0.625395 0.0717891 -0.776999
0.105741 0.12465 -0.00902967 0.984836 0.0600482 -0.162764
0.00618424 -0.143706 0.104151 -0.191769 0.141959 0.971119
0.0788565 0.29967 0.112465 0.910255 0.155225 0.383849
0.0877774 0.289718 0.0946231 0.887441 0.090911 0.451867
-0.0889421 -0.207063 -0.0865265 -0.760351 -0.43568 0.481715
0.0220841 0.167131 0.247371 0.44087 -0.89565 0.0586938
-0.0359778 0.366911 0.029074 -0.679821 -0.71534 0.161656
0.0193836 -0.326373 0.0769633 -0.5429 -0.577744 0.609484
-0.063393 0.0755544 -0.0311196 -0.959776 0.0571983 -0.274878
0.0722416 0.21483 -0.184839 0.945661 -0.289161 -0.148699
0.0667191 0.233886 0.186078 0.982139 -0.183352 0.0422457
-0.0200931 0.370067 0.0553892 -0.710783 -0.128797 0.691519
0.00233061 -0.301856 -0.145271 0.131559 0.157935 -0.978646
0.0503337 -0.4878 0.0864304 0.114704 -0.883945 0.453304
0.105741 0.27224 -0.0217435 0.918903 0.0910119 -0.383841
-0.0489799 0.00332216 -0.00195967 -0.981014 -0.18777 -0.0485259
-0.0340813 0.189706 0.240696 -0.783061 0.545563 -0.298623
0.027637 -0.0255343 -0.0794868 0.545885 -0.255507 -0.797951
0.0461161 -0.0996479 0.0715318 0.983371 -0.0614691 0.170889
-0.0416975 0.170044 -0.301964 0.118601 -0.958674 -0.258609
-0.0228695 -0.324431 -0.0814288 -0.189983 -0.290077 0.937956
-0.0702809 0.194075 -0.331094 0.085273 0.11766 -0.989386
0.0574341 0.204392 -0.0751781 0.320588 -0.188986 -0.928174
0.0934212 0.241532 -0.0440762 0.819496 0.0312237 -0.572234
-0.0156269 -0.152445 0.0237335 -0.672415 -0.211318 -0.709368
-0.081599 -0.211433 -0.115049 -0.873992 -0.295348 -0.385885
-0.0171953 -0.162519 -0.0612202 0.66337 -0.325612 0.673734
0.00644213 -0.364484 -0.146606 -0.313585 0.692914 -0.649257
-0.0554127 0.129383 0.0333599 -0.963715 0.0117872 0.266672
-0.021011 0.227453 0.113436 -0.870328 -0.099238 0.48237
-0.0636054 0.198202 -0.270892 -0.580145 0.252548 0.774371
0.00267959 0.481973 0.0601228 -0.147368 0.840309 0.521693
-0.0582347 -0.250272 -0.0924738 -0.59892 -0.627948 0.496967
-0.0154392 -0.213253 0.0801797 -0.566688 -0.0540459 0.822158
0.0117219 0.174534 0.132006 -0.0443781 -0.318848 0.946766
0.0116308 0.370552 -0.00798282 -0.217791 0.285644 -0.93326
-0.0255625 -0.305011 -0.144543 -0.560257 -0.163445 -0.812033
0.00140515 0.164946 -0.230718 0.00837421 -0.995967 -0.0893273
0.0195657 -0.450174 -0.142237 0.40389 -0.913233 -0.0536565
-0.0082061 -0.227818 0.0878869 -0.532991 -0.0457515 0.844883
0.00486426 0.329771 0.118655 -0.695359 0.710998 0.104682
0.0346159 0.112391 -0.0864658 0.152894 0.202267 -0.967322
0.0842576 0.260345 -0.120632 0.969416 0.0923748 -0.227377
-0.0231426 0.084536 -0.079851 -0.498369 0.393618 -0.772459
-0.0252439 0.213374 0.276744 -0.42167 0.71534 -0.557211
0.0347373 -0.293602 0.0838209 -0.0696177 -0.00926384 0.997531
0.0234192 -0.0871464 0.102998 0.26442 -0.0952801 0.959689
-0.00294155 -0.0630538 0.002607 0.276866 -0.401618 -0.872954
0.0688432 -0.492655 0.0695292 -0.224569 -0.971999 0.0691878
0.0399867 -0.241412 0.0251521 0.253022 -0.0413432 -0.966577
0.106469 0.0957024 -0.0212277 0.960117 0.0868343 -0.265773
-0.100837 -0.153416 -0.107524 -0.964014 0.249386 -0.092111
0.0721809 0.0199048 0.089222 0.516692 -0.19858 0.832824
-0.0289078 0.273211 0.0799976 -0.874498 0.379498 0.302052
0.0251791 -0.0808957 0.10403 0.230314 -0.0537987 0.971628
0.0166679 0.275881 -0.136047 -0.562597 0.586714 -0.582453
0.0565845 0.146254 0.122114 0.617329 -0.0814257 0.78248
0.00433325 -0.207306 0.0880083 -0.44377 0.0692529 0.893461
-0.0155814 0.413276 0.0721994 -0.323218 -0.132616 0.936986
-0.0458546 -0.483916 0.094441 -0.786977 -0.135596 0.601898
-0.0727994 -0.20063 -0.0745105 -0.475806 -0.314471 0.821411
0.0585265 0.212281 0.166294 0.933696 -0.352796 0.0612082
0.0570093 -0.390701 -0.0945978 0.534894 0.236645 0.811103
0.0283652 0.140186 -0.0820357 -0.325363 0.311542 -0.892794
-0.0489496 0.213859 0.00862256 -0.976079 0.213787 0.039553
-0.0076182 0.188735 -0.163963 -0.782554 -0.532011 0.323377
-0.0373432 0.436094 0.00119603 -0.567361 0.090689 -0.81846
0.0772786 0.13351 -0.0574576 0.572248 0.273537 -0.773117
-0.0226875 0.213374 0.182558 -0.911508 -0.0952093 -0.400111
-0.0428961 -0.0843548 0.0563602 -0.976994 -0.0715468 -0.200909
-0.0434422 0.216529 -0.314101 0.306008 0.622483 -0.720329
0.0124046 -0.482459 0.111919 0.103959 -0.260515 0.959856
0.0605898 -0.187765 0.0600621 0.992836 -0.0658699 0.0996852
-0.0191639 -0.449688 -0.174158 -0.0332181 0.396353 -0.917497
-0.0928867 0.176355 -0.299294 -0.679113 -0.104755 0.726521
0.00524355 0.329043 0.123813 -0.637404 0.759551 0.129608
-0.024417 -0.12635 -0.133134 0.25842 0.172334 -0.950537
-0.0330345 -0.0113412 -0.114928 -0.157374 0.167175 -0.973286
0.0991258 0.29166 0.0671017 0.939892 0.243689 0.239205
0.0715741 -0.402596 -0.10006 0.815433 0.0249179 0.578315
0.0376502 -0.369339 -0.146728 0.599781 -0.0471754 -0.798772
-0.00873711 -0.422258 -0.148548 -0.683048 0.447554 -0.577184
0.0644737 -0.27661 0.03182 0.393969 0.109744 -0.912548
-0.00984841 -0.183638 -0.09302 0.988389 0.0976009 0.116452
-0.0502847 0.206213 0.0114293 -0.9789 0.200607 0.0388751
0.0381965 -0.0601409 0.0991746 0.601328 0.134723 0.787562
0.110838 0.0913936 0.0163663 0.999603 0.0126298 -0.0251882
-0.0544417 0.154629 -0.032394 -0.881669 0.0623879 -0.467725
-0.0289533 0.191041 0.324565 0.491285 -0.209273 0.845484
-0.0399831 0.154508 0.290095 0.0418805 -0.944089 0.327019
0.0311871 -0.311566 -0.113593 0.961468 0.222167 0.161927
0.0940281 0.286562 0.0835781 0.90601 0.163863 0.39025
-0.0139742 -0.364242 -0.112864 -0.307424 -0.816977 0.487893
0.103981 0.204149 0.0759923 0.847718 0.0201335 0.530065
-0.00776231 -0.248573 -0.079062 0.450782 -0.0475748 0.891365
-0.0219744 0.405508 0.0698023 -0.387083 -0.174512 0.905379
0.0462374 0.263258 -0.182775 -0.053076 0.852485 -0.52005
0.0564631 0.204999 -0.136168 0.74862 -0.654959 0.102943
0.0466015 0.304282 -0.12039 -0.080234 0.749819 -0.656761
0.0021789 0.0606862 -0.10188 -0.200139 0.276517 -0.939938
0.0359207 0.383175 -0.000836968 0.356477 0.427344 -0.830843
0.0478456 0.0679686 0.110462 0.389749 -0.225169 0.892969
-0.0128515 -0.0658758 0.100449 -0.468259 -0.170602 0.866965
-0.0475538 -0.0130708 0.0254707 -0.980122 -0.172483 -0.0980347
-0.0563837 -0.200873 -0.0686846 -0.307895 -0.338583 0.889135
-0.0349006 0.111117 0.0820003 -0.790365 -0.162958 0.590566
-0.0407266 0.0678472 -0.0685633 -0.765349 0.260569 -0.58851
-0.0398163 0.266657 0.0503522 -0.959158 0.276209 0.0610268
0.0807984 -0.318605 0.0405665 0.845513 0.113041 -0.521853
-0.00344218 -0.325402 0.0624592 -0.691648 -0.609138 0.388038
0.00947647 0.333169 0.115317 -0.598568 0.789438 0.136029
0.0577982 0.211796 -0.106735 0.667563 -0.698493 0.257812
-0.0631503 0.18036 -0.335949 0.209654 -0.281948 -0.936243
-0.0628772 0.119309 -0.0138846 -0.993973 0.104388 -0.0334719
0.0477849 -0.144435 0.0857022 0.758861 0.0392635 0.650068
-0.0504971 -0.44896 -0.157408 -0.798396 0.58529 -0.141421
-0.0883352 -0.137516 -0.075967 -0.762514 0.0549034 0.644637
0.00923374 0.220049 -0.260697 0.643118 0.491576 -0.587156
0.0341001 0.168951 0.217028 0.662382 -0.747412 -0.0512333
0.104345 0.23777 -0.0291169 0.826771 -0.00237245 -0.562534
0.0665978 -0.307439 0.0858842 0.574614 0.0352307 0.817666
0.0355566 -0.114637 0.0961403 0.693495 -0.203706 0.691063
0.0855927 0.14589 -0.0490828 0.700076 0.136292 -0.700941
-0.0464007 0.163732 -0.0405564 -0.727733 0.175758 -0.662959
-0.00221328 -0.0504917 0.109309 -0.244204 0.00377685 0.969716
0.0280011 0.181695 -0.0682598 -0.246991 -0.0709931 -0.966414
-0.0538349 -0.053253 -0.0496897 -0.638851 0.0134998 0.769212
-0.0319573 -0.219686 -0.0751174 0.0130199 -0.0610112 0.998052
-0.0502847 0.192983 -0.326239 0.394693 0.19204 -0.89852
0.0270908 -0.0123881 -0.0902284 0.508552 -0.23412 -0.828591
0.101735 0.261316 0.0782681 0.856243 0.045209 0.514591
-0.0614207 0.0522811 -0.0175561 -0.656008 -0.75463 -0.0136823
0.0522758 -0.130598 0.0768723 0.968512 0.075253 0.237323
0.0740622 0.230487 -0.10983 0.833412 -0.525667 0.170582
0.110899 0.122222 0.0286643 0.999427 0.0321323 -0.0105924
-0.0455814 0.0835044 -0.0584893 -0.741768 0.257322 -0.619326
0.0483614 0.106687 0.122721 0.264113 -0.19178 0.945233
-0.061451 -0.0168561 -0.0547874 -0.896756 -0.0155556 0.442252
0.0699963 -0.375893 0.0821823 0.400035 -0.167133 0.901132
0.0332201 -0.143342 0.0174105 0.500132 -0.00819601 -0.86591
0.00206511 0.288989 0.167144 -0.774522 0.424833 0.46865
-0.00200848 0.276124 -0.111044 -0.901632 0.267605 -0.339776
-0.071434 -0.263259 -0.11602 -0.68875 0.297203 0.661283
0.00538011 0.127077 -0.072872 -0.535019 0.35702 -0.765697
0.0489076 -0.00664562 -0.0756636 0.575869 -0.292451 -0.763444
0.0599829 -0.207791 0.060942 0.899766 0.215434 0.379486
0.0854106 -0.379777 0.0423112 0.835946 0.011318 -0.548695
-0.104539 0.211553 0.325536 -0.744357 0.549047 -0.380105
0.0905083 -0.469108 0.0804831 0.794528 -0.154879 0.587144
-0.0138429 0.296514 -0.0603706 -0.728229 0.296999 -0.617636
-0.0263134 0.219928 -0.0485367 -0.666132 -0.0890627 -0.740497
-0.0149575 0.0950955 -0.0775449 -0.442381 0.451792 -0.774715
-0.0267686 -0.319576 -0.133498 -0.634626 -0.128444 -0.762071
-0.0503757 0.00675856 0.0136747 -0.999894 -0.0102164 0.0103842
0.0809198 0.275395 0.110341 0.928265 -0.00586325 0.371872
0.0451754 0.398225 0.0181124 0.868772 -0.19547 -0.455001
0.0104019 0.491925 0.0227436 0.0778251 0.992024 -0.0991568
-0.00904619 -0.268599 0.0407485 -0.76196 -0.01471 -0.647457
-0.0406203 0.158877 0.294707 0.0511486 -0.898279 0.436439
0.111263 0.10608 0.0127151 0.995031 0.0329477 -0.0939535
0.0733947 0.281221 -0.133741 0.774395 0.453517 -0.441174
-0.0385267 0.183516 0.243609 -0.81687 0.497271 -0.292309
-0.067459 0.0575305 -0.0181933 -0.844704 -0.488095 -0.219634
0.0698749 -0.472264 0.0893434 0.351276 -0.331658 0.875562
0.0102806 -0.0171975 0.10846 0.0634524 -0.0908953 0.993837
-0.0324124 -0.0930937 -0.120026 -0.0817359 0.294413 -0.952177
0.0851072 -0.414976 0.027132 -0.651727 -0.565949 0.504929
0.0104019 0.491925 0.0227436 0.0778251 0.992024 -0.0991568
0.029943 -0.203058 0.0995387 0.329219 0.011362 0.944185
-0.0490709 0.446289 0.01215 -0.827174 0.170988 -0.5353
0.0421107 0.368853 0.0747482 0.512675 0.625847 0.587776
-0.0142254 0.235464 -0.0619484 -0.780006 -0.192827 -0.595323
-0.0329131 0.23158 -0.268708 -0.303639 0.938055 0.1669
0.0669619 0.229759 0.145782 0.950978 -0.305926 0.0452664
0.0425962 0.0745835 -0.092231 0.378784 0.0972928 -0.920357
0.0585872 0.161911 -0.063769 0.632102 -0.0389464 -0.773906
0.016152 -0.116762 0.00889565 0.142152 -0.142589 -0.979521
0.0205366 -0.38973 0.0271168 -0.523863 -0.322689 -0.788314
0.0689646 0.351861 0.0563602 0.791587 0.586427 0.171736
0.00150378 0.230609 -0.12925 -0.997726 -0.0228112 0.0634166
-0.0866967 0.174413 0.305873 -0.44997 -0.470724 -0.758911
0.0613787 0.207184 -0.151218 0.765712 -0.6369 0.0896776
-0.00448904 -0.0564087 -0.015068 0.376107 -0.923959 -0.0695962
0.0431727 0.367154 0.000467795 0.325756 0.657423 -0.679469
-0.0310015 -0.335355 -0.0897429 -0.421199 -0.517544 0.744808
-0.106541 0.198688 0.321652 -0.460348 0.26293 -0.847908
0.0796454 -0.0109619 -0.0133991 0.66419 -0.718288 -0.207155
-0.0088471 0.276124 -0.0671675 -0.688531 0.206294 -0.695246
0.023753 -0.175992 0.0997208 0.0360185 -0.169842 0.984813
-0.0258811 0.413761 -0.00362855 -0.393179 -0.124802 -0.910953
-4.37696e-05 0.264229 0.193967 -0.775862 0.468081 0.423011
-0.0973168 0.175748 -0.319927 -0.986707 0.115094 -0.114728
0.0324919 -0.416918 0.0683154 -0.960015 -0.235822 0.150859
0.0736374 0.219685 0.103059 0.836498 -0.192322 0.513111
0.0516082 -0.311323 0.0277844 0.174092 -0.0131543 -0.984642
-0.0217772 -0.0844762 0.011581 -0.596144 -0.198223 -0.778023
0.0959701 -0.443377 0.0758709 0.863459 0.120428 0.489832
-0.0617241 -0.175992 -0.0615236 -0.365132 -0.272411 0.890208
0.108472 0.169073 0.0042683 0.996134 -0.0708659 -0.0519106
-0.00166712 0.164339 -0.234966 -0.167385 -0.979591 -0.111282
0.049211 -0.123498 0.0714408 0.987149 0.0890228 0.132709
0.1004 -0.454543 0.0564512 0.918635 0.227843 -0.322795
0.0618035 0.449688 0.0348316 0.969864 0.202935 0.134834
0.110717 0.0872669 0.0115203 0.997141 0.0215501 -0.0724268
-0.0209882 -0.0537688 -0.119297 0.176451 -0.180967 -0.967531
0.0591333 -0.379049 -0.116627 0.859063 0.480038 -0.177695
0.00319544 -0.223813 0.0936521 -0.475064 0.100468 0.874197
0.052033 0.202572 -0.110801 0.336396 -0.862869 0.37722
0.035071 0.208276 0.278928 0.656174 0.213005 0.723923
0.0533681 -0.10074 0.051748 0.974901 -0.105922 0.195826
-0.00939897 -0.364242 -0.147213 -0.283098 -0.844686 0.45427
0.0049705 0.303797 -0.0961757 -0.829974 0.472968 -0.29571
0.0106599 0.00301872 -0.0982997 0.412563 -0.0756329 -0.907784
-0.0309864 0.394827 0.00294836 -0.42611 -0.345012 -0.8363
0.0566452 -0.181939 0.0439194 0.952103 -0.0241214 -0.304825
0.0411701 -0.146012 0.0887365 0.711044 0.000252452 0.703148
0.050273 -0.0373834 -0.0596423 0.703961 -0.678821 -0.208904
-0.0765013 0.172228 0.34447 0.378533 -0.713919 0.589095
-0.00647271 0.152444 0.255746 0.342281 -0.936648 0.0743853
0.0680543 0.00716817 -0.0632835 0.656317 -0.421319 -0.62589
-0.0468863 -0.0118647 0.0631267 -0.969632 0.0673313 0.235118
0.0564631 -0.445562 0.0967471 0.0222453 0.119559 0.992578
-0.00225882 -0.334627 -0.147335 -0.180096 -0.0554157 -0.982087
-0.0121996 0.261802 0.128729 -0.978596 0.0865741 0.186693
0.0201421 0.240926 -0.181926 -0.794457 0.572434 -0.202873
0.0497876 -0.0898774 0.0709857 0.985434 -0.0561658 0.160518
0.0665978 0.233643 0.187413 0.981626 -0.183416 0.0526194
0.0551887 0.196381 0.131156 0.879208 -0.465969 0.0993267
-0.0213903 0.177933 -0.297837 0.57408 -0.66696 -0.47497
-0.00167466 -0.239227 0.0871587 -0.554479 -0.0984549 0.826353
0.0556742 0.192376 0.229408 0.87933 -0.476179 -0.00574276
9.38388e-06 0.199294 0.301989 0.546219 0.0618367 0.835357
-0.00143954 0.157906 0.236326 0.292898 -0.955433 -0.0368622
-0.0268065 -0.463039 -0.154617 0.0748894 -0.899159 -0.431167
-0.0101348 -0.123376 0.0125937 -0.333424 -0.216263 -0.917637
0.0617428 0.298699 0.158526 0.863758 0.349071 0.363416
-0.0665791 0.162154 0.323594 -0.0473739 -0.988001 0.147004
0.0639276 0.000659529 -0.0643152 0.635262 -0.336343 -0.695209
-0.044125 -0.232187 -0.0713548 -0.258582 -0.209138 0.943078
0.0445989 -0.407936 -0.086041 0.0252028 -0.168066 0.985454
0.0790385 -0.376379 0.0359543 0.706627 -0.0284751 -0.707013
0.00803516 -0.245053 -0.0919276 0.776225 0.189068 0.601438
-0.0264879 0.357201 0.0332689 -0.85267 -0.519219 0.0580127
0.109443 0.0792563 0.0467869 0.96434 0.0425771 0.261221
-0.0665184 0.0775571 -0.00450851 -0.988906 0.0804956 -0.124844
-0.0152628 -0.369825 -0.12573 -0.534442 -0.845102 -0.0131895
-0.0518018 0.148196 -0.0353373 -0.839596 0.0279701 -0.542491
-0.0460973 0.0553458 -0.0671068 -0.810699 0.314105 -0.494069
0.0195657 -0.445804 0.056785 -0.572445 0.441362 -0.691018
0.0777034 -0.40745 0.0340275 -0.0917782 -0.980714 0.172559
-0.0259493 -0.482459 0.1138 -0.236877 0.490685 0.838521
-0.0678838 0.216651 -0.287642 -0.646792 0.664298 0.374658
0.0656875 0.219321 -0.071901 0.580712 -0.236552 -0.778984
0.0432941 0.264472 -0.178892 -0.2827 0.800434 -0.528569
0.00206511 -0.477362 0.0536596 0.0592469 -0.464337 -0.883675
0.047967 0.339481 0.129821 0.394899 0.783944 0.479047
0.0638062 -0.420559 -0.0989673 0.55272 -0.346162 0.758072
0.088627 0.241411 0.0929239 0.793899 -0.0987417 0.599978
0.00110933 0.322488 0.120172 -0.826738 0.561058 0.0414536
-0.0271479 0.0548299 0.0904357 -0.696012 0.138275 0.70459
0.00665455 -0.350405 -0.144786 0.011671 -0.035802 -0.999291
0.0265446 -0.122041 0.0122258 0.32759 -0.0486325 -0.943568
-0.00763717 -0.294816 0.0345433 -0.741619 -0.162723 -0.650786
-0.0176277 0.0885414 0.0956548 -0.652265 -0.078536 0.753912
-0.0101651 -0.190192 -0.0996348 0.865048 0.389078 0.316719
0.0303072 -0.247845 0.0955941 0.262472 -0.138102 0.955006
-0.0853009 0.159363 -0.299779 -0.253782 -0.755304 0.604244
-0.0380867 0.107294 0.0697416 -0.914252 -0.0802926 0.39711
0.0453878 -0.182303 0.0272761 0.710314 0.0204101 -0.703589
0.109018 0.262773 -0.0172224 0.925736 0.0902904 -0.367235
-0.0207378 0.169315 0.30733 0.31697 -0.689202 0.651561
-0.0364178 -0.156451 0.0539631 -0.978702 -0.0167093 -0.204606
-0.0277017 -0.441921 -0.157894 -0.349453 0.711988 -0.609062
0.0297306 0.178297 0.278443 0.56979 -0.495155 0.655867
0.00227753 -0.419345 -0.108374 -0.557931 0.0624938 0.827531
-0.0692493 0.217379 0.351024 0.542857 0.548021 0.63638
-0.0719195 -0.161063 -0.134348 -0.292442 0.130212 -0.947376
0.0401384 0.457941 0.0704698 0.60363 0.372774 0.704748
0.066355 0.00566619 -0.063769 0.648083 -0.401225 -0.647307
-0.00305534 0.114333 0.110584 -0.409267 -0.117652 0.904798
-0.0211096 0.209975 0.200521 -0.891519 0.408027 -0.196743
0.00683658 -0.112392 -0.0939303 0.818079 -0.188761 -0.543246
-0.01645 0.309623 -0.0094393 -0.819305 0.571326 -0.0482295
-0.0469166 -0.0470933 0.0552678 -0.993144 -0.0885317 -0.0763412
0.109503 0.193954 0.0285429 0.999227 0.0155334 0.0361066
-0.000369909 -0.377593 -0.160928 -0.384432 -0.047786 -0.921916
0.0442651 0.180482 0.206104 0.774172 -0.627568 -0.0825526
-0.0176239 0.0854463 -0.0826426 -0.447907 0.383349 -0.807727
-0.0359019 0.232794 0.0894647 -0.889662 -0.0537579 0.453444
-0.0551396 -0.0439376 -0.0504179 -0.661819 -0.0242327 0.749272
-0.0398314 -0.136181 0.0698326 -0.919893 -0.0707088 0.385742
0.0876561 0.0107259 -0.0464733 0.689053 -0.572047 -0.444937
0.00824758 0.108447 -0.0853735 -0.424463 0.35685 -0.832159
0.0477242 -0.0172582 0.0889793 0.639653 -0.209746 0.739494
0.0412611 -0.306953 0.0891006 -0.179799 0.0616002 0.981773
0.0897801 0.204635 -0.0465947 0.758975 -0.123858 -0.639231
-0.0486765 0.0136541 0.0242114 -0.998045 0.0293526 0.055177
-0.0673983 -0.193834 -0.136532 -0.227398 -0.191761 -0.954734
0.0528826 -0.148925 0.0596069 0.957725 0.278064 0.0737793
-0.0444588 0.172471 -0.277204 -0.192402 -0.869603 0.454723
0.0528219 0.379048 0.0303711 0.866764 0.496239 -0.0496761
-0.0141932 -0.205485 -0.0736002 0.58278 0.0272959 0.812171
-0.0819631 -0.115669 -0.0677136 -0.800552 0.0845016 0.593276
0.0760649 -0.417403 0.0766599 0.315154 0.242523 0.91753
-0.054199 0.138244 0.0418106 -0.967461 -0.0614891 0.245434
0.0380144 0.183759 -0.130221 0.337687 -0.809696 0.479958
0.0690253 0.238619 -0.190908 0.820081 0.390384 -0.41841
-0.0143241 0.218107 0.208046 -0.90467 0.369318 0.212549
0.0436582 -0.21386 0.0257362 0.463185 -0.109041 -0.879528
-0.0328524 0.41279 0.0654935 -0.509643 -0.0742111 0.857179
0.0605291 0.271754 -0.155709 0.464931 0.673395 -0.574786
0.0452058 -0.365698 -0.101213 0.515629 0.575353 0.634898
-0.0163514 -0.158757 -0.114564 0.980965 0.0340802 -0.191169
0.0509406 0.321032 0.153671 0.543928 0.614679 0.571237
-0.0128346 0.228303 -0.244433 -0.409094 0.900983 0.144467
-0.0260631 0.0785887 0.0860056 -0.732647 0.119973 0.669951
-0.0176163 0.098676 -0.0736002 -0.462434 0.454406 -0.76136
0.0176692 -0.30404 0.0289071 -0.214781 -0.315569 -0.924276
-0.0138955 0.28195 0.139895 -0.978745 0.186838 0.084551
-0.0132914 0.175748 0.11289 -0.723006 -0.00667774 0.69081
0.0669619 0.358658 0.0263582 0.802688 0.596299 0.0109514
-0.053228 -0.260103 -0.101334 -0.625571 -0.556616 0.546662
0.0482097 -0.279523 0.0894647 -0.000327054 -0.062967 0.998016
0.0167892 0.119309 0.115621 -0.270595 -0.10067 0.957415
0.0879595 0.189827 0.0881296 0.648319 -0.0331427 0.760647
-0.0687334 0.162033 0.325779 -0.0536332 -0.980895 0.187001
-0.0772902 0.186793 0.291551 -0.805409 0.0978204 -0.584592
0.0462678 0.416917 0.0628537 0.760696 -0.200576 0.617342
-0.00480763 0.309137 0.0985677 -0.891679 0.391825 0.226674
0.0619856 -0.383904 -0.111772 0.753485 0.645945 0.122538
0.111202 0.238984 0.0141033 0.986291 0.0220302 0.163539
0.111142 0.205606 0.00949493 0.991434 -0.0473346 0.121729
0.0609539 -0.469108 0.0920743 0.151555 -0.247124 0.957058
0.0510013 0.0912723 -0.0863444 0.372341 0.214499 -0.902969
0.0685397 0.240197 0.132188 0.951511 -0.236095 0.197194
-0.017658 0.480516 0.00527721 -0.340727 0.804218 -0.486969
0.0277583 0.298699 0.189719 0.126454 0.693749 0.709029
-0.0376315 0.271512 0.0419775 -0.955409 0.293268 -0.0344626
-0.0430933 -0.0713679 0.0483495 -0.962283 -0.109817 -0.248901
-0.071616 -0.0443927 -0.0675316 -0.913029 -0.00714059 0.407831
0.0909938 0.114333 -0.0566687 0.775925 0.151894 -0.612266
-0.00867641 0.411334 -0.00675392 -0.112002 -0.225862 -0.967699
0.00616908 0.284863 -0.118933 -0.723597 0.358334 -0.589918
-0.0239315 0.180724 0.195302 -0.54969 -0.445999 -0.706347
-0.00376077 0.253306 -0.0799116 -0.907855 -0.00359026 -0.419269
0.0354352 0.102317 0.120779 -0.0635961 -0.167931 0.983745
0.00629041 -0.263987 -0.087194 0.643483 0.0220995 0.765141
-0.0345213 0.0845967 -0.07093 -0.624552 0.358564 -0.693806
-0.0367819 -0.182546 -0.137746 0.203312 -0.0860263 -0.975327
-0.01938 -0.244325 -0.0728113 0.272147 -0.100306 0.957013
-0.0263059 0.331227 0.0455124 -0.833148 -0.54179 -0.111027
0.0665978 0.234614 0.16593 0.969608 -0.238545 0.0543763
-0.00184915 0.272725 -0.114321 -0.919002 0.225705 -0.323253
-0.0485248 -0.337054 -0.125245 -0.629135 -0.29112 -0.720721
0.0480884 -0.113727 0.0592125 0.992171 -0.0138471 0.124119
-0.0156706 0.325887 0.0411278 -0.916978 -0.37968 -0.122455
-0.0300457 0.273939 0.0759013 -0.890872 0.350658 0.288767
-0.0155909 -0.199174 -0.0783945 0.792766 0.110971 0.59934
0.0476028 -0.316906 0.0277464 0.0766808 -0.0971782 -0.992309
-0.100108 -0.152688 -0.110073 -0.967618 0.197987 -0.15658
-0.0394521 -0.0181609 -0.0113509 -0.898525 -0.429052 0.0925653
-0.0261466 0.214588 -0.305362 0.642501 0.502943 -0.578136
0.013497 0.426627 -0.0113661 0.00807652 -0.173156 -0.984861
0.0109936 0.201358 -0.0779697 -0.349698 -0.594133 -0.724374
0.0194443 0.423228 -0.0126557 0.147735 -0.214398 -0.965509
0.0841362 0.313021 -0.0638297 0.920826 0.333355 -0.202373
-0.0536224 0.225997 0.315826 -0.0891275 0.989871 0.110503
0.00506152 -0.396527 -0.155102 -0.238828 -0.212853 -0.947446
0.0511227 -0.123194 0.0499881 0.998676 0.0207097 0.0470969
-0.0377529 0.2652 0.0160524 -0.956756 0.290892 0.000354177
0.0848645 0.0969768 -0.0657717 0.756417 0.00123647 -0.654088
0.0765504 0.0769502 0.0910426 0.627777 -0.0693836 0.775295
0.0377716 -0.441435 -0.135076 0.471196 -0.832911 -0.290229
0.0269087 -0.107476 0.0116152 0.382713 -0.0142013 -0.923758
0.0951811 -0.484887 0.0786322 0.71554 -0.274968 0.64218
0.0214469 0.347006 -0.013035 -0.545285 0.50193 -0.671364
0.0607718 -0.267628 0.0884331 0.523855 0.0895845 0.847084
0.0265142 -0.0499455 0.0047993 0.506965 -0.342897 -0.790827
-0.0690975 -0.266172 -0.114685 -0.24075 0.588258 0.772005
-0.00633241 0.0333469 0.108824 -0.507902 0.0653453 0.858933
0.0494234 0.270541 0.204284 0.549829 0.615656 0.564495
0.0349497 -0.396284 0.085156 -0.571674 0.115843 0.812262
-0.0164329 -0.159121 0.0854594 -0.512994 -0.0949018 0.85313
0.000783127 -0.456 -0.128279 0.320664 -0.908041 0.269511
0.0470567 -0.0380206 0.0180015 0.633986 -0.2956 -0.71462
-0.0982878 0.175505 0.317525 -0.459278 -0.208635 -0.863444
-0.0349916 0.0608682 -0.0801544 -0.716071 0.313963 -0.623434
0.0407453 0.240683 0.245915 0.348629 0.70809 0.614057
0.0937854 0.330742 -0.000685253 0.827197 0.561581 0.0192851
0.0349497 0.46668 -0.00490297 0.547433 0.498481 -0.672186
0.0955453 0.0314352 0.0685885 0.784564 -0.142422 0.603469
-0.00448904 -0.152203 -0.07093 0.827962 -0.455564 0.327018
0.00342302 0.346763 0.0816362 -0.499973 0.312553 0.807674
0.0112515 0.275153 0.201856 -0.551731 0.659763 0.510201
-0.0745897 -0.224784 -0.127793 -0.411218 -0.223882 -0.883616
0.0750939 0.220899 -0.163599 0.904118 -0.42725 -0.00532314
-0.033611 -0.117975 0.0359543 -0.90316 -0.138291 -0.406421
0.0501517 0.112391 -0.0779697 0.362742 0.233988 -0.902035
-0.0473717 0.171621 -0.280602 -0.317056 -0.917821 0.238916
-0.0319118 -0.228668 -0.142601 -0.0077574 0.152665 -0.988248
-0.0484337 0.209975 0.034422 -0.988368 0.134845 0.0703295
-0.0769868 0.194925 -0.293468 -0.569615 0.142463 0.809471
-0.0205786 0.0273086 0.0982643 -0.652168 -0.0476367 0.756576
-0.0650315 -0.0963101 -0.117234 -0.158518 0.347489 -0.924188
-0.0680962 0.0579553 -0.0164031 -0.888086 -0.434753 -0.149311
0.0447506 0.462796 0.000998801 0.668368 0.362686 -0.649418
0.047967 0.1874 0.195909 0.822459 -0.550212 -0.144317
0.0711493 0.21216 -0.192121 0.922423 -0.305706 -0.235967
-0.0710699 0.17854 0.34981 0.504867 -0.455476 0.733247
-0.0125485 -0.314236 0.0586359 -0.92644 -0.173787 0.333928
0.0556135 -0.430511 -0.14078 0.444619 -0.500587 -0.742783
-0.0157957 -0.281222 -0.0739644 -0.107337 -0.0877251 0.990345
0.034889 -0.414976 0.0900109 -0.521135 0.0432149 0.852379
0.0670226 -0.407693 0.0252052 -0.184111 -0.978696 -0.0908653
0.00431809 0.117853 0.113557 -0.370115 -0.151801 0.916499
0.061318 -0.0197084 0.0744145 0.761173 -0.205887 0.615001
0.0892339 0.244567 0.0926204 0.793899 -0.0987417 0.599978
-0.0283768 -0.171379 -0.0572755 0.373191 -0.299825 0.877971
0.00235339 0.477846 -0.00238448 -0.079232 0.647638 -0.757817
0.0245116 0.173927 -0.217731 0.467677 -0.877857 -0.103173
0.0088696 0.456484 -0.0134294 -0.096588 0.170597 -0.980595
0.0183215 0.173199 0.183408 -0.303705 -0.79605 -0.523515
-0.0727994 -0.0967956 -0.0580645 -0.758627 0.108069 0.6425
-0.0326249 -0.336811 -0.0916242 -0.432504 -0.55098 0.713696
0.0386516 -0.443134 -0.119176 0.343963 -0.891162 0.295836
-0.00801265 0.305739 0.10142 -0.907612 0.374783 0.189152
0.107076 0.158634 -0.00519123 0.991288 -0.100767 -0.0848148
0.100279 0.317876 0.00631647 0.900624 0.420353 0.110358
0.0843789 0.265928 -0.118084 0.962705 0.166466 -0.21328
0.00815656 0.430996 -0.0122764 -0.0780066 -0.104378 -0.991474
0.00293748 0.00167985 0.109491 -0.188853 -0.212313 0.958779
0.0691466 -0.332927 0.0810293 0.53324 0.0338175 0.845288
0.05707 0.249179 0.214843 0.827912 0.39395 0.399204
-0.0467345 -0.244689 -0.081975 -0.462726 -0.456161 0.760133
-0.0487372 0.0488523 -0.0236551 -0.785999 -0.617844 0.0217805
0.0792813 0.249664 -0.0734182 0.90158 -0.268413 -0.339276
0.0798275 -0.375893 0.0758406 0.782097 0.118048 0.611874
0.0630779 -0.34555 0.0895254 -0.0057018 0.0867689 0.996212
-0.0102505 -0.0653296 0.10233 -0.400642 -0.137494 0.905859
0.106469 0.0957024 -0.0212277 0.960117 0.0868343 -0.265773
-0.0418189 -0.115548 0.0666162 -0.966143 -0.153273 0.207547
-0.0507095 0.00939084 -0.0168279 -0.98563 -0.0988444 0.13698
0.00932475 -0.133997 -0.0661358 0.840925 -0.505704 0.192635
0.0293666 -0.246388 0.0262975 0.0200525 -0.0845559 -0.996217
0.0784316 0.0462731 0.0862484 0.540439 -0.0786539 0.837699
-0.0185228 0.055983 -0.0969646 -0.439365 0.320059 -0.839357
0.0310354 0.28195 0.203313 0.126313 0.649683 0.749638
-0.0979844 -0.162519 -0.0835528 -0.852584 0.0318052 0.521621
0.0423231 0.438521 -0.00531261 0.575809 -0.0252619 -0.817194
-0.0465221 0.223326 0.0296277 -0.987803 0.155557 0.00686883
0.0749118 0.226603 -0.128522 0.877072 -0.475568 0.0676766
0.0275763 0.489498 0.0382907 0.31589 0.937001 0.14914
0.0840755 0.246509 0.0996601 0.86571 -0.101806 0.490083
0.0302465 0.0448773 0.116349 0.182625 -0.010465 0.983127
-0.0237495 0.349676 0.043267 -0.984594 0.0814311 -0.154739
-0.0563533 0.406721 0.0314104 -0.991313 0.0933004 -0.0927007
0.0811018 0.00400488 0.06783 0.664606 -0.492509 0.561902
-0.0245535 0.17684 -0.0550908 -0.483121 0.0112348 -0.875482
0.109139 0.164582 0.0215602 0.99737 -0.024697 -0.0681354
2.45425e-05 0.453329 -0.0128984 -0.142308 0.147019 -0.978843
0.105741 0.302826 0.00218219 0.9652 0.248517 0.081409
-0.0388149 0.0725201 0.0743538 -0.772454 0.132755 0.621041
0.0602257 0.248936 -0.19552 0.603678 0.60393 -0.520425
0.0381054 -0.424928 -0.0990279 -0.0756259 -0.503462 0.860702
-0.0419706 -0.112331 0.0619434 -0.981975 -0.0800063 0.171242
0.0399564 0.352346 -0.0519351 -0.253205 0.96381 -0.0834078
-0.019509 0.166888 0.203191 -0.469019 -0.501265 -0.727155
0.0190801 0.237527 -0.166876 -0.813308 0.543831 -0.206831
0.0611967 -0.170166 0.0606082 0.996412 0.0836828 0.0126761
-0.0960424 0.222598 0.325293 -0.538726 0.783429 -0.309861
0.0395315 0.335111 0.147481 0.310551 0.78447 0.536809
-0.00511868 0.382204 0.0686189 -0.344261 0.0144113 0.938763
-0.117222 0.204392 0.345926 -0.588625 0.803211 0.0914969
-0.0122427 0.219685 0.129397 -0.868018 -0.459306 0.188635
-0.0449443 0.369824 0.030356 -0.686033 -0.720812 0.0989402
-0.0304401 0.343365 0.0160358 -0.870891 -0.0842208 -0.484206
0.0545818 -0.438279 0.0974754 -0.0834862 0.273394 0.958272
-0.00487594 -0.415947 -0.148791 -0.738237 0.364215 -0.567762
0.064413 -0.426142 -0.13459 0.729082 -0.162159 -0.664939
0.0264535 -0.289233 -0.104611 0.919636 0.260921 0.29358
0.0540963 -0.23328 0.0860056 0.589727 0.0579021 0.805524
0.0943922 0.0799239 -0.0555156 0.79742 0.0199886 -0.603094
-0.00309327 -0.227454 0.0910426 -0.524367 0.0116464 0.851413
-0.0174191 0.19274 0.316069 0.568827 0.00130006 0.822456
0.114297 0.2652 -0.000806626 0.9754 0.0821729 -0.204555
0.0415646 -0.168224 0.0870373 0.677118 0.0521822 0.734022
0.052033 -0.192134 0.0706519 0.908222 0.011368 0.418333
-0.0242046 -0.100194 -0.0355194 -0.236706 -0.394701 0.887796
0.0542177 -0.0710645 0.0488047 0.999564 0.00671505 -0.0287434
0.056281 0.201601 0.149545 0.888176 -0.458871 0.0241123
0.0215076 -0.0371406 -0.0138998 0.569877 -0.802288 0.177692
-0.0482213 0.0277334 -0.0151894 -0.998998 0.0266708 0.0359374
0.0729092 0.351375 0.0383969 0.822965 0.55803 0.106449
-0.0510736 0.4225 0.0383059 -0.981364 0.165894 0.0969743
0.048938 -0.0575617 0.0906178 0.806201 0.103109 0.582587
0.0430513 0.023106 0.106154 0.482783 -0.134302 0.865381
-0.00694683 -0.405266 -0.133862 -0.950795 0.0834306 -0.298377
-0.0169791 0.271512 0.145296 -0.983706 0.163971 0.0737352
-0.0863325 -0.0944288 -0.0885898 -0.983501 0.18063 0.00997603
-0.0171232 -0.340452 -0.135319 -0.537691 -0.0592004 -0.841061
-0.0233323 0.346035 0.0231532 -0.849373 0.346645 -0.397999
0.0434155 0.190556 -0.122332 0.327265 -0.793097 0.513707
0.0226303 -0.017592 -0.091078 0.557649 -0.215389 -0.801645
-0.0230364 -0.352104 -0.107524 -0.368719 -0.708345 0.601909
0.110292 0.146618 0.0407637 0.994346 -0.0266319 0.102794
0.0802523 0.242018 -0.106189 0.94342 -0.302495 0.13585
0.089416 -0.398226 0.050777 0.834568 0.064336 -0.547135
-0.0193118 0.175505 -0.225863 -0.853117 -0.391681 0.34464
0.0215986 0.318362 0.170663 -0.449392 0.705637 0.547834
0.0604684 0.297728 -0.131677 0.40512 0.757687 -0.511653
-0.0667004 0.208397 0.352966 0.64859 0.315538 0.692652
0.057252 -0.482945 0.0480461 -0.1496 -0.75644 -0.636724
0.0383178 0.349433 0.120718 0.0389913 0.950031 0.309711
0.00582011 0.19711 -0.275019 0.686582 -0.00622415 -0.727026
0.023844 0.236435 0.254775 -0.334655 0.877296 0.344032
0.0214469 -0.405994 0.0642798 -0.94856 -0.310776 0.0604367
-0.0369336 0.213252 0.0809079 -0.879856 -0.157445 0.448403
-0.032458 0.204271 -0.0447741 -0.700492 0.103267 -0.706149
0.0323402 -0.370068 0.0725939 -0.559378 0.314127 0.767086
-0.0279975 -0.179876 0.0465745 -0.865397 -0.155516 -0.476344
0.0341304 0.380019 -0.00390164 0.287876 0.411139 -0.864923
-0.0617545 -0.0877533 -0.114564 -0.21523 0.244848 -0.945371
0.0487559 0.203421 -0.0752388 0.285446 -0.139476 -0.948191
0.0790385 0.335597 -0.0451382 0.742567 0.599761 -0.298131
-0.0792929 -0.0747057 -0.102973 -0.865179 0.179275 -0.468322
0.00865719 -0.316906 0.0796335 -0.47144 -0.323121 0.820571
0.0311871 0.339238 0.140259 -0.0355917 0.88935 0.45584
-0.0580526 0.200387 -0.32551 0.30577 0.251011 -0.918422
0.0235102 0.317876 0.171999 -0.0664298 0.792251 0.606569
-0.104963 0.20512 0.321409 -0.527053 0.326898 -0.784444
0.0513048 0.248451 -0.204016 0.399063 0.682341 -0.612503
0.00921858 -0.353318 0.0536596 -0.772347 -0.626883 0.102459
0.0530647 -0.0773759 0.0622164 0.980306 -0.125945 0.152114
0.0688432 -0.277096 0.0352716 0.643415 0.0214322 -0.765218
0.0362545 -0.455514 0.0940162 -0.0630416 0.335582 0.939899
0.006078 0.11755 -0.081975 -0.458084 0.309816 -0.83317
-0.0388756 0.235342 0.0845491 -0.928717 0.010412 0.370642
0.0577982 0.170408 -0.0661358 0.488215 -0.119197 -0.864545
-0.0272541 0.292145 -0.0140667 -0.874312 0.483231 -0.0454637
0.00469739 -0.220778 -0.0972073 0.919146 0.197414 0.340879
0.0868064 0.139457 0.0906178 0.670956 0.00797927 0.741455
-0.0942825 -0.138609 -0.114928 -0.814563 0.413423 -0.406901
0.0774 0.276124 -0.129735 0.893134 0.328545 -0.307196
0.070421 0.217379 -0.195762 0.923639 -0.0984651 -0.3704
0.0842576 -0.0149066 0.01171 0.78935 -0.579619 -0.202404
-0.0255245 0.355259 0.0674051 -0.813492 0.270403 0.514891
-0.00907848 0.387302 0.068983 -0.483421 -0.204112 0.851259
0.0237833 -0.448232 -0.13544 0.353234 -0.93517 0.026132
-0.0289989 0.0749475 -0.0766953 -0.598206 0.327688 -0.73128
-0.0183825 -0.483673 0.0578773 -0.16406 -0.73063 -0.662771
0.0604077 0.4225 0.0303787 0.977518 -0.186716 -0.0979622
0.0932392 0.311565 0.0491385 0.933107 0.337795 0.123313
0.0144224 -0.0426935 0.10852 0.223144 -0.0929106 0.970347
0.0408363 0.352346 -0.05855 -0.0952836 0.953257 -0.286745
0.0774 0.173927 -0.0556977 0.665014 -0.0983378 -0.740329
0.0391068 0.206334 -0.0996955 0.106341 -0.988901 0.103761
-0.0465828 0.393856 0.0168991 -0.83081 -0.204668 -0.517557
0.0353745 -0.469351 0.100024 0.310595 0.0554023 0.948926
-0.00194017 0.47639 -0.00347684 -0.0858941 0.613909 -0.78469
-0.0465828 0.218957 0.048744 -0.988222 0.0582224 0.141515
-0.00154572 -0.150139 -0.0803365 0.825715 -0.562485 0.0424944
0.0534894 0.284863 0.18717 0.677675 0.552677 0.485082
0.0154086 -0.330257 -0.0849486 0.359906 0.14068 0.922322
0.00442433 -0.443862 -0.17076 0.0476479 0.280287 -0.958733
0.00170098 -0.377593 -0.115292 -0.720496 -0.535099 0.441083
-0.00524762 0.290203 0.156706 -0.844285 0.374529 0.38329
-0.131605 0.199901 0.339615 -0.684738 0.717651 -0.126931
0.107683 0.220413 0.0265555 0.997243 0.0325938 0.0666589
0.0431727 0.367154 0.000467795 0.325756 0.657423 -0.679469
0.0881415 0.170772 0.089222 0.559233 0.0442128 0.827831
0.015621 0.164946 0.197608 -0.0257134 -0.921417 -0.387724
0.0203546 0.160212 -0.0700197 -0.397418 0.289703 -0.870707
-0.0146313 -0.458427 0.0839423 -0.752865 0.658121 -0.0084357
0.027546 0.0112266 0.109552 0.282623 -0.318606 0.904773
0.108714 0.203785 0.0595766 0.98729 -0.0269366 0.156632
0.00525878 0.353803 0.0813327 -0.371576 0.37134 0.850904
-0.0486158 0.176112 0.0544182 -0.969857 0.111363 0.21674
0.0178209 0.287776 0.193482 -0.448636 0.572194 0.686527
-0.0441857 0.0501571 -0.0718403 -0.793405 0.349483 -0.498368
-0.0453691 0.236799 0.044147 -0.99209 0.125531 -0.000313482
-0.00882052 0.230245 -0.265552 0.24893 0.908365 -0.336017
-0.0174987 0.23777 0.171999 -0.999345 0.0172618 0.0318025
0.111142 0.109114 0.0201379 0.99756 0.0270803 -0.0643532
-0.13033 0.194925 0.356122 -0.759257 0.465039 0.455268
0.015272 -0.353318 0.0555106 -0.930518 -0.365583 0.0220526
-0.0332469 -0.212404 0.0604262 -0.98952 0.00937993 0.144094
-0.0323973 0.0461821 0.0864911 -0.735926 0.10434 0.668974
-0.0218302 -0.260589 -0.143451 -0.0265502 -0.0327731 -0.99911
-0.0717981 0.207791 -0.283273 -0.757736 0.477082 0.445229
-0.0143117 -0.484401 0.110826 -0.0802697 0.363432 0.928156
0.00677595 -0.182303 0.0929239 -0.364254 -0.22651 0.903334
0.0458733 0.285834 -0.150369 -0.277423 0.753584 -0.595943
-0.0374039 -0.0467898 -0.113835 -0.321758 0.0134094 -0.946727
-0.0342483 -0.261074 -0.1443 -0.423165 -0.0352732 -0.905366
0.0812839 0.0718526 0.0876441 0.651433 -0.0650102 0.755916
-0.0646371 0.0890269 -0.0151894 -0.983319 0.044307 -0.176411
-0.0475841 0.185579 0.0510804 -0.970994 0.108618 0.213008
-0.0163115 0.223569 -0.055637 -0.727253 -0.0944395 -0.679842
0.0913579 0.332441 -0.0126102 0.842033 0.520015 -0.143406
0.0173506 0.212281 0.292037 0.454353 0.36723 0.811606
-0.0275879 -0.156693 -0.136654 0.554248 0.0571168 -0.830389
0.0966377 0.176719 -0.0356104 0.800246 -0.03589 -0.598597
0.106165 0.243232 0.0343309 0.994148 0.0688239 0.0832599
-0.038026 0.260345 -0.0236855 -0.956039 0.188995 -0.224211
0.0670226 0.268113 0.172363 0.894484 0.285372 0.344181
0.0552494 -0.467894 0.0941983 0.213077 -0.0638016 0.97495
0.0512441 -0.141522 0.0630054 0.97544 0.219506 0.0182908
0.0071704 -0.0294638 -0.102608 0.572559 0.108774 -0.812616
0.0307926 0.345792 -0.0691094 -0.423279 0.847344 -0.320692
0.0602257 -0.419345 -0.135076 0.683399 0.0728026 -0.726406
-0.00109056 0.160819 -0.0631015 -0.293587 0.124543 -0.947785
0.113448 0.264472 -0.00560087 0.933513 0.129785 -0.334229
0.0690253 0.284863 -0.137382 0.519489 0.665963 -0.535373
-0.000385067 0.300156 -0.069959 -0.849658 0.23684 -0.471156
-0.047038 0.0276423 -0.00695115 -0.99598 0.0544071 0.0711539
0.0146045 0.209733 -0.262396 0.763505 0.151473 -0.627787
-0.0725263 -0.176477 -0.135319 -0.347431 -0.0588549 -0.935857
0.0219931 -0.450417 -0.161778 0.630016 -0.488685 -0.603546
0.0557956 0.19444 0.222854 0.894719 -0.438737 -0.0835953
0.0757007 -0.481488 0.0435401 -0.0212336 -0.525202 -0.850713
0.095788 -0.497267 0.0459373 0.0617415 -0.8441 -0.532619
0.0864423 0.233522 -0.0587927 0.83264 -0.133087 -0.537586
0.00673041 0.329043 0.111433 -0.697089 0.700917 0.150942
-0.0154524 0.200872 -0.186659 -0.942872 0.179665 0.280558
-0.0679445 -0.256705 -0.11687 -0.380615 -0.379273 -0.843377
0.0528219 -0.0517965 0.0353171 0.896168 -0.20597 -0.393014
0.0761863 0.136423 0.0988712 0.625762 0.0223964 0.779693
-0.0364633 0.23959 0.0924384 -0.894132 -0.00928872 0.447708
-0.0406052 0.261316 -0.00890829 -0.968678 0.243153 -0.0503968
-0.032018 -0.173564 -0.0570328 0.208394 -0.144953 0.967244
0.0450844 -0.0559232 0.0892827 0.787079 0.0593979 0.613986
-0.065517 0.000192993 -0.0726293 -0.957417 0.280292 -0.0692044
0.0909938 0.000428181 0.0337848 0.874935 -0.475225 0.0930061
0.110474 0.0748869 0.00551996 0.997766 0.0152159 -0.0650495
0.0195657 0.189585 -0.255842 0.792126 -0.105717 -0.601132
-0.0170625 0.296029 0.0844884 -0.880285 0.352851 0.317166
-0.0302278 -0.351376 -0.107039 -0.435338 -0.707368 0.556877
0.0420197 -0.233887 0.02629 0.320575 -0.092489 -0.942697
-0.00817198 0.151959 0.114346 -0.44215 -0.255026 0.859922
0.0315209 0.211432 -0.244676 0.725567 0.109242 -0.679426
-1.33868e-05 0.432453 -0.00869589 -0.184644 -0.115962 -0.97594
0.106226 0.00784332 0.0175468 0.866327 -0.497887 0.0398153
-0.000453379 -0.068637 -0.0987245 0.692363 -0.16951 -0.701356
0.0188678 -0.090909 -0.0855555 0.774849 -0.104623 -0.623429
-0.0309257 0.138851 0.0873407 -0.767469 -0.0945292 0.634079
-0.00917711 0.170044 -0.209114 -0.698208 -0.668153 0.257055
0.0736981 0.268113 0.137771 0.976945 -0.0482842 0.207958
0.0405632 -0.490227 0.0923777 0.079219 -0.964057 0.253611
0.0817087 0.337539 0.0367736 0.832108 0.538169 0.134052
-0.0228923 0.300156 0.00749227 -0.855684 0.517374 0.0113926
-0.00194778 0.209733 -0.14248 -0.83551 -0.177099 0.520153
0.0329471 -0.249544 0.0925598 0.243167 -0.0753598 0.967053
0.000866532 -0.39944 -0.14867 -0.346296 -0.174796 -0.921697
0.0947564 0.0084426 -0.0199836 0.702315 -0.677592 -0.218228
0.054946 0.179268 -0.0757243 0.262979 -0.0947492 -0.960138
0.0395315 0.187885 -0.125609 0.172472 -0.816763 0.550591
0.00644213 -0.454058 0.0569974 -0.477586 0.573777 -0.665351
0.0614394 0.198081 -0.191393 0.74445 -0.661494 -0.090664
-0.0241136 0.203907 0.318739 0.576478 0.154829 0.80231
-0.0193572 0.287533 -0.0579431 -0.763902 0.249535 -0.595136
0.0792813 0.00407316 -0.0489008 0.687028 -0.561842 -0.460789
-0.0663363 -0.203301 -0.0728113 -0.371463 -0.291136 0.88162
-0.0504668 0.0323759 -0.081004 -0.755973 0.443627 -0.481352
0.0155603 0.167495 -0.183625 -0.0893779 -0.995568 0.0292536
0.0117978 -0.402596 -0.149398 -0.238723 0.212407 -0.947573
0.0212649 -0.437551 -0.163477 0.482704 0.0919303 -0.870945
-0.0372522 0.274667 0.0490474 -0.951418 0.29947 0.0715621
0.106772 0.254762 0.0555106 0.988628 0.0990371 0.113163
0.00246717 -0.455757 -0.134105 0.288386 -0.932483 0.217503
0.0740622 0.314235 0.112829 0.868049 0.29664 0.398115
0.0345552 0.183516 -0.126701 -0.115743 -0.788882 0.603547
-0.0179463 -0.0875105 -0.124516 0.00954286 0.145804 -0.989267
0.0255736 -0.384875 0.0756282 -0.816827 -0.061661 0.573578
-0.010131 0.0970982 -0.0783945 -0.434004 0.462039 -0.773408
-0.00934398 0.0160057 0.108642 -0.589995 -0.0864627 0.802764
0.00221683 -0.206214 0.029347 -0.5064 -0.177013 -0.843934
-0.0905199 -0.138123 -0.0786979 -0.786192 0.0677616 0.614256
-0.0478269 0.00236635 -0.00871106 -0.972892 -0.231203 0.00516256
0.0817087 -0.300642 0.0596979 0.98245 0.133645 0.130117
0.0456912 -0.353561 0.0777522 -0.469016 -0.15045 0.870281
-0.00494419 -0.0582293 -0.108859 0.428068 -0.21845 -0.876948
0.0336146 -0.441678 0.0891006 -0.212431 0.404914 0.889336
-0.033429 -0.182667 0.0524459 -0.891828 -0.163404 -0.421832
0.0196264 -0.382448 0.068012 -0.728346 -0.110547 0.676233
0.0631993 0.118156 0.109249 0.686315 -0.0628177 0.724587
0.0526398 -0.145648 0.062975 0.970254 0.242089 0.000474084
0.0379233 -0.297244 0.0849132 -0.047581 0.0568874 0.997246
0.00277061 -0.287048 0.0745965 -0.70272 -0.0763597 0.707357
0.0945136 -0.45163 0.0787536 0.85374 0.109098 0.509142
0.0337967 0.354531 0.101359 -0.0915118 0.849147 0.520168
0.0524578 -0.06448 0.0819396 0.937663 -0.0102271 0.347395
0.0232372 -0.373223 -0.157651 0.371224 0.178389 -0.911246
-0.00765994 0.17684 -0.280845 0.597021 -0.680994 -0.424043
0.0307926 -0.416189 0.0605779 -0.876243 -0.473237 -0.090798
0.0413825 0.207791 -0.0998776 0.106341 -0.988901 0.103761
-0.0394218 -0.255977 -0.143572 -0.654956 0.0152603 -0.755513
-0.0581133 0.0957024 0.033102 -0.91772 0.125102 0.377014
-0.086636 0.18473 0.358307 0.456364 -0.465428 0.75836
-0.091673 0.159848 -0.318471 -0.722271 -0.685096 -0.094702
-0.0218151 0.309137 0.0638246 -0.888137 0.299391 0.348681
0.0263018 0.255248 -0.171731 -0.702463 0.633794 -0.323808
-0.052075 0.408421 0.0398534 -0.950711 0.179894 0.252559
0.00933991 0.225147 -0.16639 -0.856834 0.48493 -0.175153
-0.0275803 -0.460612 -0.167968 0.258928 -0.747756 -0.611405
-0.0367668 -0.290204 -0.13811 -0.68815 -0.241884 -0.684063
0.0456609 -0.435852 -0.146121 0.52905 -0.517648 -0.672418
0.0733947 -0.375408 0.0295822 0.591366 0.144109 -0.793423
0.0222662 0.342636 0.117866 -0.481865 0.853651 0.197703
0.0213863 0.20949 -0.254386 0.765241 0.185857 -0.61633
0.0753367 -0.332199 0.075082 0.750294 0.188152 0.633765
0.0949384 0.243717 -0.0397978 0.828868 0.00770558 -0.559391
3.20889e-05 0.324188 -0.0432266 -0.690817 0.693354 -0.205019
0.0869278 0.00417179 -0.0228359 0.690273 -0.679366 -0.248969
-0.0458242 0.234129 0.0453911 -0.99209 0.125531 -0.000313482
0.0186553 -0.0620829 -0.0257488 0.613413 -0.415872 0.671398
-0.0406052 0.261316 -0.00890829 -0.968678 0.243153 -0.0503968
0.0112515 -0.239713 -0.0992707 0.930592 0.16337 0.327581
0.0497876 -0.138245 0.0348771 0.951929 -0.156902 -0.263085
-0.0471897 0.0386873 0.0395348 -0.955909 -0.293612 0.0055129
-0.0863325 -0.158393 -0.072872 -0.655702 -0.0405441 0.75393
-0.0115126 -0.464981 0.0522942 -0.448097 0.423656 -0.787226
0.0154693 -0.313022 0.0357116 -0.300007 -0.397738 -0.867064
0.0508799 0.286805 -0.149276 0.000829699 0.752893 -0.658142
-0.0687941 0.215194 -0.285943 -0.734102 0.485811 0.474428
0.0351621 0.189827 -0.235694 0.664998 -0.595496 -0.450735
0.0317636 -0.359387 0.0402934 -0.462762 0.21174 -0.860824
0.0194139 -0.366426 -0.155709 0.35403 0.346495 -0.86868
-0.0483123 0.216529 0.00808397 -0.976079 0.213787 0.039553
-0.041303 0.166888 0.306359 0.143597 -0.847108 0.511653
0.0189891 -0.285834 -0.128036 0.840833 0.186538 -0.508137
0.0557349 -0.0838087 0.0464379 0.999241 0.0388779 -0.00263486
-0.0409086 0.405022 0.0593642 -0.675076 -0.115408 0.728666
0.061136 -0.347735 0.0327227 0.182598 -0.058835 -0.981426
0.0534894 0.199052 0.193239 0.890108 -0.446082 -0.0933746
0.11096 0.27491 -0.00770973 0.936434 0.205588 -0.284296
0.0537929 0.376621 0.0311145 0.854082 0.517338 -0.0538932
0.015712 -0.15196 0.105365 -0.13365 0.0461906 0.989952
0.0453575 0.112391 -0.0783338 0.31135 0.236408 -0.92042
-0.0393611 0.223084 0.297863 -0.185069 0.914091 -0.360815
-0.000779584 0.281707 -0.113714 -0.871139 0.313061 -0.378297
0.0761256 0.219807 -0.0677136 0.693401 -0.19707 -0.693079
-0.0587201 0.0057724 -0.0540591 -0.940058 0.113895 0.321433
-0.0385267 -0.231338 -0.0705659 -0.199046 -0.119518 0.972675
-0.0518322 -0.246267 -0.0852521 -0.441376 -0.559127 0.701829
-0.00530832 -0.227939 -0.13459 0.549023 0.123872 -0.826577
0.00560769 -0.129748 -0.0567901 0.6989 -0.520768 0.490245
0.0310961 0.222234 0.271403 0.333685 0.674417 0.658648
-0.0157957 -0.175506 -0.128522 0.71425 0.302011 -0.631376
-0.00997172 -0.213617 -0.130949 0.58631 0.258877 -0.767609
0.0854713 -0.0078821 0.00344144 0.699887 -0.678821 -0.222172
0.0302465 -0.325888 -0.135319 0.642506 0.430257 -0.634086
0.0581016 0.197959 0.2464 0.926299 -0.329244 0.183215
-0.0115989 0.20682 -0.0605526 -0.619586 -0.107994 -0.777464
-0.0587808 0.0942459 -0.0359138 -0.899286 0.208805 -0.384299
-0.00244847 -0.255734 0.0299539 -0.456083 -0.151478 -0.876951
-0.0330649 0.194318 0.0818789 -0.867098 0.0505744 0.495564
0.0755794 0.349433 0.0193432 0.778881 0.622847 0.0735279
0.0360117 -0.0443017 -0.0390999 0.676242 -0.660149 0.326956
-0.0194938 0.188614 -0.297352 0.789339 -0.189969 -0.583828
0.0882022 0.111906 -0.0601885 0.763306 0.172696 -0.622527
0.0790385 -0.376379 0.0359543 0.706627 -0.0284751 -0.707013
-0.0505881 -0.34021 -0.118326 -0.810047 -0.463994 -0.358516
-0.0414851 0.166766 0.308301 0.178319 -0.857813 0.482037
0.00401466 0.167859 -0.217003 0.010715 -0.9967 0.0804631
0.0134818 -0.452359 -0.138474 0.346603 -0.934381 0.0824471
-0.0604497 -0.32079 -0.11335 -0.945909 -0.0792122 -0.314613
0.00827789 -0.223813 -0.11869 0.81785 0.396843 -0.416698
0.0091882 -0.336811 -0.0822784 0.18604 -0.14311 0.972064
0.0297306 -0.324431 -0.0916849 0.719912 0.278801 0.635607
0.0234496 -0.448475 -0.125366 0.304786 -0.951136 0.0494449
-0.0197897 0.460368 0.0679513 -0.425076 0.372677 0.824877
-0.0340359 -0.481245 0.111069 -0.378143 0.46451 0.800774
-0.0421982 -0.00942581 -0.00937861 -0.927441 -0.373665 0.0150842
-0.00392771 0.31909 -0.0433783 -0.733702 0.647227 -0.20683
-0.0177149 0.0321332 0.100692 -0.627516 -0.0224246 0.778281
-0.0755303 -0.0482463 -0.0944764 -0.735918 0.323539 -0.594766
-0.0183218 0.462553 -0.00652634 -0.358645 0.262871 -0.895697
0.0972446 0.249179 -0.0427107 0.82872 -0.0158745 -0.559438
-0.0182042 0.0851429 0.0934701 -0.653336 0.0410632 0.755954
0.098701 0.135574 -0.0427411 0.821646 0.200223 -0.533675
0.0463588 -0.236436 0.0874621 0.419984 0.0771675 0.904245
0.0186857 0.237891 -0.216396 -0.447395 0.893359 -0.0417918
0.0250881 0.454542 -0.0119275 0.242846 0.156845 -0.957301
0.00700352 -0.239349 0.0270941 -0.35682 -0.0578924 -0.932378
0.0719382 -0.0373834 0.0574222 0.803018 -0.233659 0.548238
-0.139251 0.168223 0.339372 -0.992392 -0.0985159 0.0738403
