ply
format ascii 1.0
element vertex 816
property float x
property float y
property float z
property float nx
property float ny
property float nz
element face 0
property list uchar int vertex_indices
end_header
0.0156821 -0.389236 0.0487989 -0.945901 -0.323617 -0.0233212
-0.02747 -0.401108 -0.139438 -0.743766 0.657779 -0.118911
0.0473477 -0.400139 -0.130473 0.782497 -0.234841 -0.576669
0.00486951 0.447426 -0.0105948 0.0784402 0.056505 -0.995316
-0.0356249 -0.116467 0.0286199 -0.851537 -0.139059 -0.505517
0.029781 -0.405954 -0.0994583 0.108414 -0.684991 0.72044
0.0503462 -0.036659 0.0774509 0.836407 -0.0664149 0.544069
0.0913554 0.334756 -0.00116029 0.85162 0.523819 -0.0188713
0.056343 -0.0203795 0.00095983 0.275845 -0.901506 -0.333461
-0.0417732 0.0924565 -0.0584491 -0.702395 0.386036 -0.598011
0.0456516 0.129528 0.13321 0.168683 -0.145362 0.974893
0.0639755 0.24559 -0.225575 0.723611 0.334293 -0.603851
0.102198 0.256009 0.0778446 0.866787 0.108424 0.486749
-0.0408646 -0.467741 0.0998939 0.243838 -0.890843 -0.38333
-0.0318541 -0.406681 -0.132653 -0.789491 0.611369 0.0541442
-0.0277274 0.241592 -0.327341 0.492148 -0.145368 -0.858288
-0.0120773 -0.0575271 -0.101397 0.740351 -0.192117 -0.644182
0.00138645 0.164177 0.224375 0.0924396 -0.979068 -0.181332
-0.104544 -0.0594049 -0.102063 -0.835513 0.512715 -0.197589
0.109891 0.213001 0.021472 0.976887 0.0114134 0.213453
-0.00467862 0.208518 -0.253198 -0.373643 -0.869794 -0.322255
0.0263281 0.354383 0.100742 -0.23154 0.907017 0.351724
-0.0241989 -0.0979306 -0.111694 0.751769 -0.256089 -0.607669
-0.0396228 -0.0684912 -0.0334922 -0.326975 -0.189596 0.925819
0.0227543 -0.412739 0.0716357 -0.8801 0.0273213 0.474001
-0.0302337 0.25504 -0.272582 -0.742648 0.18343 0.644071
0.065611 0.358017 0.0551593 0.813266 0.556667 0.169473
0.0342332 -0.0745487 0.101287 0.411108 -0.0474809 0.910349
-0.0402286 0.477956 0.0184423 -0.643267 0.717217 -0.267969
0.0974129 -0.497059 0.047754 0.0411927 -0.860072 -0.508506
-0.0105695 0.246559 -0.314499 0.727195 -0.146876 -0.670533
0.0886296 0.256009 -0.0711092 0.910748 -0.412818 -0.0109448
-0.0660487 -0.268328 -0.142467 -0.591887 -0.250959 -0.765956
-0.129198 0.246559 0.362971 -0.808211 0.500449 0.310397
0.0272065 0.444034 0.0800859 0.37716 0.128716 0.91716
-0.0120366 0.284358 -0.0573587 -0.711122 0.280529 -0.644677
0.0277214 -0.369609 -0.0836483 0.159554 -0.123281 0.979461
-0.106604 -0.181948 -0.0844357 -0.563986 -0.341666 0.751787
-0.0443477 0.210699 0.0689704 -0.950043 0.0166364 0.311677
-0.0111015 -0.234285 -0.120296 0.933521 0.321048 -0.159583
-0.111328 -0.182675 -0.145253 -0.356297 -0.193048 -0.914213
0.0941418 0.00237399 0.0272418 0.708179 -0.693569 0.132076
-0.0106206 0.166843 0.219166 -0.172912 -0.866259 -0.468719
0.0740309 -0.430669 0.0812974 0.42744 0.286066 0.85759
-0.0136934 0.453241 0.0782686 -0.361671 0.173273 0.916063
-0.0361852 0.263036 -0.00414361 -0.962535 0.261625 -0.071265
-0.0106074 -0.301281 -0.0852838 0.18638 0.0539125 0.980997
0.0340515 -0.37494 -0.0831637 0.170537 -0.226275 0.959019
-0.0356703 0.212153 0.330018 0.339321 -0.428884 0.837209
0.0726983 0.279512 0.131332 0.964869 0.0827187 0.249371
-0.0188077 0.490071 0.0361085 -0.286166 0.94318 0.168881
-0.0267733 0.114203 0.0955931 -0.761125 -0.122183 0.636992
0.065187 -0.315576 0.0264846 0.355945 -0.0160044 -0.93437
0.0343241 -0.401593 -0.122598 0.5031 -0.86163 -0.0669649
0.0839652 0.185379 -0.0487571 0.686323 -0.108487 -0.71916
-0.0157658 0.10651 0.10474 -0.613889 -0.0935583 0.783829
-0.117871 -0.130459 -0.0815281 -0.666322 -0.0619434 0.743087
0.0292055 0.244379 -0.261436 0.793612 0.297716 -0.530609
-0.0137866 0.0731937 0.102196 -0.601369 0.0288462 0.79845
-0.038063 -0.248459 -0.0832848 0.255076 -0.0615597 0.964959
0.0101849 0.263278 -0.227393 -0.32155 0.841825 0.433517
0.0973523 0.322157 0.0168636 0.870998 0.462709 0.165111
-0.0330504 0.22451 0.278408 -0.353557 0.632926 -0.688768
-0.13047 0.223904 0.372905 -0.708326 -0.0348212 0.705026
0.00102297 0.0424216 0.113584 -0.448934 0.0892594 0.889095
0.0122748 0.249467 -0.126959 -0.97335 0.0834475 -0.213604
0.0691244 0.290173 0.143084 0.921865 0.236829 0.306719
0.00826169 -0.484944 0.0618528 -0.0895047 -0.95177 -0.293468
-0.0320358 0.0508718 -0.0924922 -0.496196 0.431015 -0.753668
0.0451367 -0.363794 0.0794498 -0.493048 0.0722634 0.866996
0.0553133 -0.252578 0.0268329 0.482313 0.078281 -0.872494
-0.0457863 -0.0314344 0.0688189 -0.964439 0.0081845 0.264179
0.050649 0.212758 -0.0873433 0.451167 -0.773798 -0.444617
0.0130168 0.443549 0.0835387 0.0476265 0.0875306 0.995023
-0.0621113 0.205974 0.33123 0.0104303 -0.810736 0.585318
-0.0257815 -0.0222573 -0.118963 0.166761 0.142104 -0.975703
-0.0182891 0.305196 0.0259243 -0.90015 0.40728 -0.154446
0.0778472 -0.389963 0.0792378 0.494287 -0.00526824 0.869283
-0.10097 0.24353 0.3133 -0.534012 0.121387 -0.836717
0.00615674 -0.369367 0.0306264 -0.670943 -0.23265 -0.704066
0.116676 0.254071 -0.000599976 0.990627 0.0943132 -0.0988101
-0.0293553 0.368678 0.0552501 -0.638004 -0.391607 0.66302
0.108377 0.0341228 0.00712333 0.980271 -0.170149 -0.10059
-0.00845698 -0.264451 0.0262877 -0.588931 0.012407 -0.808088
-0.00524651 -0.168379 0.0872943 -0.512399 -0.194264 0.836486
-0.0917627 -0.10526 -0.134107 -0.0615252 0.326877 -0.943062
0.0435921 0.354625 -0.0467581 -0.149422 0.981528 -0.119478
0.021149 0.246802 0.256117 -0.310261 0.885347 0.346263
0.0479231 0.0573836 0.109162 0.474763 -0.193965 0.858474
-0.0471493 0.202461 0.265809 -0.785443 0.397841 -0.474133
0.020725 0.241471 0.278651 0.27681 0.914668 0.294549
0.0208159 -0.36549 0.0620648 -0.731242 0.0690607 0.678613
-0.041228 -0.114649 0.0605807 -0.962476 -0.121561 0.242619
0.0788769 0.329426 -0.0735928 0.814692 0.544401 -0.199762
0.0203616 0.204399 -0.146464 -0.731792 -0.457756 0.504916
0.0702753 0.277089 0.146355 0.959735 0.134827 0.246434
0.0170602 -0.338595 -0.0927345 0.260383 0.214258 0.941432
0.0314164 0.186711 0.27647 0.597005 -0.696405 0.398252
0.0246927 -0.260574 0.0896567 0.146337 -0.255792 0.955592
0.0170905 -0.0899347 0.101832 0.0537847 -0.176371 0.982853
0.000833656 0.367467 0.00514707 -0.405976 0.11606 -0.906484
0.0966254 0.316099 -0.0208926 0.908968 0.343436 -0.236282
-0.013909 0.1666 0.23855 -0.164912 -0.980876 0.103375
-0.0276063 0.280239 0.0895356 -0.90023 0.374487 0.222138
0.0777866 -0.494636 0.0725746 0.18107 -0.850602 0.493649
0.0659745 0.275635 -0.172633 0.254594 0.881879 -0.396826
0.00768625 -0.105926 0.00498049 0.07289 -0.0938189 -0.992917
0.0117902 -0.403774 -0.100488 -0.102521 -0.617664 0.779732
0.0825115 0.341299 0.0235316 0.80077 0.585365 0.126944
0.00443031 0.227539 -0.170331 -0.949114 0.311143 0.0487078
0.0187866 0.356806 -0.00655147 -0.571397 0.217607 -0.791298
0.0206644 0.211062 -0.265555 0.358471 -0.796327 -0.487198
-0.0477853 -0.123433 -0.0566924 0.17319 -0.448059 0.877068
0.0500432 0.446699 0.0143904 0.827368 0.137277 -0.544626
-0.0187321 -0.356767 -0.118358 -0.934864 -0.189822 0.299995
-0.0442416 0.475533 0.0218052 -0.802071 0.564035 -0.196336
0.0872969 0.237473 0.0941999 0.765547 -0.0692809 0.639639
-0.0521467 -0.0547406 -0.0417304 -0.580058 -0.00163096 0.814573
0.00632329 -0.072368 -0.0459101 0.719388 -0.52678 0.452751
-0.0392442 -0.0929634 -0.131927 0.682703 -0.168091 -0.7111
-0.0604455 0.13074 -0.012715 -0.919818 0.177028 -0.350136
0.00608102 -0.335687 -0.0923711 -0.0200044 -0.203436 0.978884
0.0415628 -0.432607 0.0916557 -0.323735 0.247354 0.913242
0.00215875 0.270062 -0.0705641 -0.802924 0.128929 -0.581971
-0.0173653 0.22451 -0.303354 0.115414 -0.963185 -0.242803
-0.0542971 0.0460864 -0.0747437 -0.811783 0.492539 -0.313709
0.0272065 -0.34756 0.0366233 0.622587 0.0139226 0.782427
0.0885084 0.287266 -0.103335 0.928059 0.331747 -0.169265
-0.0310515 -0.117678 -0.113754 0.735445 -0.352507 -0.578671
0.0016893 0.205611 -0.206191 -0.751538 -0.659573 0.012418
0.0434406 -0.040869 0.0877789 0.670181 -0.000819703 0.742197
-0.0173918 0.387578 0.0722414 -0.538829 -0.107538 0.835523
0.101471 -0.445691 0.0671531 0.981122 0.160839 0.107382
0.0362322 -0.156507 0.0871126 0.510754 0.0512549 0.858198
0.0613708 -0.202907 0.0510402 0.997306 0.0182573 0.0710414
-0.00218749 0.189861 0.298519 0.256352 -0.702359 0.66406
0.0266007 0.243652 0.270897 0.25958 0.892665 0.368467
0.0289935 -0.384147 -0.0861924 0.0568641 -0.414603 0.908224
0.0521028 -0.156749 0.0400307 0.92323 0.0926289 -0.372917
-0.0776487 0.222693 -0.302627 -0.355534 -0.695844 0.624017
-0.0414401 -0.465318 0.0950479 0.333802 -0.901173 -0.276519
0.0455607 -0.388751 -0.0970353 0.599994 -0.456538 0.656948
-0.0227906 -0.116769 -0.0970353 0.775525 -0.426627 -0.46535
0.0779684 -0.322361 0.0355179 0.576982 0.190439 -0.794245
0.0107453 0.363105 -0.00396189 -0.473986 0.181922 -0.861535
-0.0666847 -0.179525 -0.0698977 0.38861 -0.273377 0.879913
-0.0208749 -0.38657 -0.126111 -0.976847 0.119701 0.177317
-0.0269172 -0.47719 0.112251 -0.244501 -0.968114 0.0545413
0.00676243 -0.343199 -0.15446 0.33861 0.165352 -0.926284
-0.0795871 0.209608 0.335106 -0.247796 -0.899811 0.359078
0.04232 -0.417342 0.0439529 -0.498237 -0.308957 -0.810127
-0.0547817 0.154849 0.0294982 -0.982581 0.126127 0.136479
0.079725 0.0731937 0.0926249 0.532591 -0.154541 0.832144
-0.0438933 -0.225683 -0.146101 0.288055 0.0963653 -0.952753
-0.0685019 0.00787117 -0.101336 -0.545462 0.314891 -0.776734
0.0189683 0.0596249 -0.101881 0.218795 0.0300111 -0.975309
-0.03932 -0.150207 0.0549473 -0.989049 -0.146533 -0.0176334
0.0477414 -0.146815 0.0840233 0.701853 0.00287127 0.712316
-0.0584768 0.39097 0.0425143 -0.938367 -0.235823 0.252695
-0.00698049 0.310284 0.122731 -0.852596 0.521048 0.0398708
0.0468025 0.263763 -0.22812 0.434572 0.900624 -0.00492158
0.0583421 0.0116117 0.0994699 0.509349 -0.266818 0.818151
-0.0346406 0.468021 0.061762 -0.564268 0.456794 0.687707
0.0592507 0.0998467 0.115825 0.689312 -0.136257 0.711536
0.0253892 0.0548698 0.120913 -0.0508355 -0.0833466 0.995223
0.0125625 0.26037 -0.269432 0.630291 0.692166 -0.351626
-0.00515569 -0.0316919 -0.111937 0.628452 -0.0614496 -0.775418
0.00206032 0.360682 0.0851136 -0.559943 0.166747 0.811578
-0.0200192 0.473594 0.000990118 -0.266192 0.53182 -0.803934
0.048014 -0.0275273 -0.0337042 0.419297 -0.888146 0.188111
0.00918544 0.317795 0.168889 -0.6341 0.553492 0.539966
0.0404118 -0.306127 0.0881424 -0.211173 0.048834 0.976228
-0.0318844 0.0151174 -0.111816 -0.0496611 0.334858 -0.940959
0.109225 0.0404529 0.0118633 0.990938 -0.112582 -0.0732558
-0.0550543 0.109842 -0.0314629 -0.822903 0.308359 -0.477226
0.0504067 -0.342714 0.0231643 -0.11481 -0.178728 -0.977177
0.0820874 0.240138 -0.0576616 0.870933 -0.290034 -0.396682
0.0710022 0.354625 0.0428777 0.800717 0.58232 0.140557
0.0998359 0.284116 -0.0293731 0.921005 0.120736 -0.370368
-0.0167822 -0.22108 -0.114602 0.939428 0.340775 -0.0367179
0.025571 0.301561 0.195663 -0.126747 0.676115 0.725813
0.0059144 0.210457 -0.16391 -0.946489 -0.145423 0.288117
0.00667161 0.346387 0.00439746 -0.537394 0.249905 -0.805453
-0.0660789 0.0674996 0.0240919 -0.966095 0.020701 0.257355
-0.0799506 0.263036 0.309665 -0.187372 0.51332 -0.837493
0.0411085 -0.485671 0.0985007 0.105746 -0.679588 0.725933
0.0900833 0.319976 0.0485415 0.901522 0.391646 0.184044
-0.0167122 0.257705 -0.246655 -0.770782 0.374488 0.515417
0.0897199 -0.490517 0.0810551 0.469959 -0.488421 0.735244
0.102198 0.205611 0.0796013 0.889417 0.0965845 0.446775
0.0774837 0.0950613 0.096744 0.636569 -0.124574 0.761092
0.0484078 -0.0199403 -0.0602057 0.716095 -0.534285 -0.449163
-0.0544485 0.141886 -0.0141385 -0.915025 0.10369 -0.389843
0.0491952 -0.386813 -0.124052 0.885787 -0.187834 -0.424383
-0.0246684 0.214576 0.240125 -0.692708 0.720991 0.0180769
-0.0622021 -0.449326 -0.150584 -0.415877 -0.862099 -0.289536
0.042956 0.273697 0.214562 0.501305 0.72801 0.467648
0.0159244 -0.390205 0.0477994 -0.902991 -0.425268 -0.0612751
-0.00202849 -0.186309 0.0853559 -0.395727 -0.20118 0.896062
0.0963831 0.0141028 0.0649421 0.791915 -0.482286 0.374527
0.110376 0.167933 -0.00141774 0.993065 -0.106516 -0.0497542
0.0143192 0.338391 0.13842 -0.476025 0.846194 0.23949
-0.0632319 -0.448357 -0.152522 -0.79352 -0.426542 -0.434036
0.0751213 0.271031 0.124003 0.961234 -0.0270312 0.274405
0.00715623 0.212153 -0.157005 -0.935459 -0.15107 0.319521
-0.112601 -0.202301 -0.132048 -0.754884 -0.348153 -0.555823
-0.00561753 -0.42655 -0.172512 0.33593 0.490661 -0.803992
0.0267522 0.296231 0.199055 -0.0718495 0.769082 0.635099
-0.0659881 0.248498 0.303608 -0.239754 0.554163 -0.797133
0.0313559 -0.401351 -0.0994583 0.148129 -0.640301 0.753706
-0.0536611 -0.128642 -0.0584491 0.260181 -0.440683 0.85913
0.018938 -0.379301 -0.142467 0.325133 0.148536 -0.93393
0.00592956 0.0383328 -0.0978228 0.111713 -0.120325 -0.986429
-0.0676842 0.413746 0.0300964 -0.973927 0.115721 -0.195129
0.0558585 0.312707 -0.111937 0.0834455 0.721406 -0.687466
0.060341 -0.448357 0.0968652 0.0891379 0.0999185 0.990995
-0.00314157 0.170841 0.21323 -0.151101 -0.810977 -0.565229
-0.0289237 0.28242 0.00244392 -0.923015 0.380031 -0.0601679
-0.018997 -0.482763 0.0563405 -0.327824 -0.31477 -0.890759
0.0464694 0.19822 0.149868 0.66275 -0.492145 0.564408
0.0382917 0.397754 0.0582183 0.856593 0.0238604 0.51544
0.055495 0.223177 0.244244 0.949853 0.1545 0.271861
-0.00155142 0.434342 -0.00679376 -0.140405 -0.114005 -0.983509
0.0315073 -0.338353 0.0788744 -0.572655 -0.395865 0.717884
0.0673072 0.358502 0.034897 0.788613 0.614701 -0.015225
0.0209067 -0.319211 -0.132653 0.780552 0.339297 -0.524992
-0.0122723 0.229598 0.155683 -0.883303 -0.462159 -0.0786483
-0.0556298 0.0454201 -0.0649912 -0.888351 0.455697 -0.0563304
-0.0218668 0.236383 0.19009 -0.999821 0.0179323 -0.00607724
-0.00933158 -0.4297 -0.145495 0.421573 -0.906691 -0.0136545
0.0462877 0.35196 -0.0614778 0.0668967 0.941606 -0.330003
0.0123353 0.224995 -0.138347 -0.944006 -0.174343 0.280102
-0.0352766 0.185742 0.0887481 -0.844727 0.0799387 0.529194
-0.0447566 0.053416 -0.00187205 -0.956267 -0.280701 -0.0822209
-0.000953284 -0.321149 -0.0868587 0.115609 -0.222581 0.968035
0.106681 0.219664 0.0348515 0.992086 0.073764 0.10161
-0.145372 0.224268 0.349402 -0.991125 0.120927 0.0552142
-0.0582042 0.126136 0.0135102 -0.989605 0.067049 0.127222
0.0152278 0.38782 0.00536666 -0.147409 -0.0273248 -0.988698
-0.0801929 0.23081 -0.327584 -0.866718 -0.497197 -0.0399307
-0.0274548 0.0215384 0.0955325 -0.732474 -0.0738699 0.676776
0.111587 0.128317 0.0441952 0.996064 0.00225389 0.0886126
0.0912948 0.303984 -0.0645066 0.96861 0.247895 -0.0184895
0.0577969 0.209245 -0.225333 0.566889 -0.688401 -0.452483
-0.0320358 0.0508718 -0.0924922 -0.496196 0.431015 -0.753668
0.0719108 -0.247248 0.0517671 0.946488 0.190875 -0.260245
-0.0509958 0.18659 0.303365 -0.222047 -0.845917 0.484891
0.0401696 -0.202059 0.099167 0.455872 0.077975 0.886623
-0.11048 0.231294 0.356187 0.207114 -0.689837 0.693706
-0.0490877 -0.334718 -0.119933 -0.434877 -0.845721 0.309255
-0.0866139 0.270062 0.350856 -0.00712781 0.827574 0.561312
-0.0668967 -0.0468356 -0.113391 -0.186921 0.197892 -0.962237
0.0494981 -0.329388 0.0233234 -0.0186275 -0.0145224 -0.999721
0.0162121 -0.467014 0.103892 -0.0465285 0.530866 0.846178
0.0116084 0.236746 -0.0899481 -0.873173 -0.355512 -0.333437
-0.0662001 0.0186459 -0.0958238 -0.73826 0.479308 -0.474591
0.0470145 -0.121131 0.086628 0.895045 0.0105037 0.445852
-0.00634068 -0.483975 0.104376 -0.0658759 -0.971606 0.227249
0.00995781 -0.157112 0.00843327 0.126058 -0.110884 -0.985806
-0.0049058 0.197251 0.201115 -0.603912 -0.496372 -0.623623
-0.0256452 0.264489 -0.324191 0.451598 0.397261 -0.798901
-0.0317329 0.134617 0.0907471 -0.838035 -0.056155 0.542719
0.0768174 0.337179 0.0673349 0.816619 0.556497 0.153116
-0.0311575 0.228387 -0.0332196 -0.805967 0.138689 -0.575484
0.0106999 0.162966 0.131756 -0.165418 -0.321746 0.932264
0.00247675 -0.238767 0.0854771 -0.651607 -0.113082 0.750081
0.0461362 0.143461 0.135149 0.219305 -0.139035 0.965699
-0.00273268 -0.454172 0.0710602 -0.264173 0.958348 -0.108542
-0.0194551 0.27297 0.118369 -0.911159 0.231347 0.340981
0.0512547 0.371101 0.065457 0.765728 0.536845 0.3542
0.0291752 0.432888 -0.00537025 0.339139 -0.0626731 -0.938646
-0.0423941 -0.0753361 0.0673046 -0.933774 -0.134096 0.331791
-0.105332 -0.154689 -0.0751072 -0.537678 -0.2025 0.818472
-0.0631714 -0.264936 -0.148161 -0.32598 -0.186025 -0.926893
0.0940813 0.26134 -0.109393 0.986246 -0.159265 0.0442054
-0.071137 -0.258394 -0.0926739 -0.663028 0.156631 0.732025
0.00462717 0.112143 -0.0799532 -0.403605 0.380609 -0.83201
0.0488924 0.455422 0.0519791 0.881186 0.334378 0.334221
-0.0285527 0.176171 0.219529 -0.643754 -0.580564 -0.498523
-0.0445748 0.471898 0.0162664 -0.754542 0.569476 -0.326135
-0.0334139 -0.204845 0.0516459 -0.926406 -0.167155 -0.337389
-0.0556601 0.18974 0.259388 -0.949241 0.0830509 -0.303389
0.0343846 0.464145 0.0691521 0.626225 0.486602 0.609147
-0.0323538 0.263278 0.102923 -0.883428 0.238176 0.403518
0.0853585 -0.479613 0.042908 0.245958 -0.189184 -0.950639
-0.0480579 -0.0397483 0.0504344 -0.99708 -0.0755032 0.0114236
0.0256921 -0.176739 0.0138699 0.298993 -0.0649325 -0.952044
0.0641573 0.239896 0.163074 0.960385 -0.275306 0.0432166
-0.0910964 -0.0441703 -0.0743197 -0.870497 0.315753 0.377538
-0.0242747 -0.0951441 -0.114481 0.741386 -0.201845 -0.640005
0.040321 -0.330599 0.0221686 -0.183128 -0.157066 -0.970461
0.0851768 0.00177201 0.055977 0.736351 -0.614216 0.283772
-0.0886734 -0.0288751 -0.0941277 -0.905701 0.419603 -0.060326
0.040533 -0.418554 0.0435592 -0.502678 -0.171691 -0.847252
0.00311282 0.176777 0.209595 -0.0987589 -0.789203 -0.60614
-0.107936 -0.20424 -0.0940066 -0.712597 -0.414697 0.565891
-0.0769219 -0.263482 -0.0945517 -0.653555 0.199945 0.729992
-0.0445446 0.0964545 0.0641849 -0.910097 0.0344548 0.41296
0.0786347 0.332091 -0.0515435 0.81992 0.560422 -0.116867
-0.0393048 0.22875 -0.335337 0.525478 -0.575239 -0.626876
0.0734252 0.303984 0.119399 0.906289 0.222427 0.359398
0.0025828 -0.0807273 -0.0907961 0.844659 -0.258183 -0.468928
-0.008987 -0.185825 0.0825695 -0.441771 -0.173745 0.880142
-0.00870306 -0.249792 0.0722717 -0.749081 -0.256519 0.610799
0.0571306 0.233112 0.23116 0.963745 0.117799 0.239412
0.0419565 0.306407 0.183669 0.388189 0.63407 0.668778
0.00317339 0.467052 0.0787532 -0.0309936 0.479967 0.876739
-0.0458166 0.246559 0.297792 -0.160936 0.739374 -0.653778
-0.0496631 0.145399 0.0573097 -0.96 -0.0468528 0.276052
-0.0450897 0.230204 -0.297296 -0.404232 -0.904616 0.135154
0.0180597 0.110871 0.120974 -0.28684 -0.148342 0.946423
0.0529509 0.233354 0.24485 0.900066 0.269546 0.342383
0.0730618 0.24244 0.123518 0.896914 -0.21457 0.38666
0.10971 0.182956 0.0259773 0.999512 -0.00833201 0.030098
-0.0692289 0.0112255 -0.0583279 -0.902328 0.206148 0.378559
0.0611891 0.277574 -0.161729 0.0613373 0.878437 -0.473906
-0.00768468 -0.299342 0.0315275 -0.436642 -0.370909 -0.819616
0.0852373 0.139705 -0.0489388 0.609677 0.210085 -0.764302
-0.0398348 -0.0518633 0.0149621 -0.916332 -0.196029 -0.349154
0.0535566 -0.399412 0.0806916 0.161359 -0.177069 0.970881
-0.0678659 0.0638652 0.0136503 -0.984462 -0.173359 0.0279451
0.01282 0.0719216 0.116915 -0.38568 -0.0210536 0.922392
-0.0202426 -0.125371 0.0823877 -0.622516 -0.135759 0.770742
0.0137589 -0.341503 -0.150341 0.572716 0.112797 -0.811957
-0.101818 -0.154084 -0.0722602 -0.537678 -0.2025 0.818472
-0.0469978 -0.00194483 0.0557953 -0.970127 0.110338 0.216054
0.0441069 -0.0983546 0.0828723 0.931606 -0.177167 0.317366
-0.0880071 0.222693 0.348918 -0.00853433 -0.804971 0.593253
-0.0173843 -0.484702 0.0945633 0.161429 -0.972871 0.165719
0.00553583 -0.0697027 0.00379171 0.20863 -0.110816 -0.971696
0.0800279 0.254071 -0.193955 0.699648 0.597386 -0.391947
-0.0581739 0.391212 0.0265149 -0.836344 -0.344299 -0.4266
-0.00406532 -0.0678248 0.102923 -0.31118 -0.111649 0.94377
-0.0812227 -0.0733372 -0.121871 -0.188188 0.394033 -0.899624
-0.0612026 0.106631 0.0208076 -0.988301 0.0541385 0.142583
0.0811788 0.24559 -0.072563 0.867073 -0.498127 -0.00735048
0.0683975 0.22245 0.112433 0.843046 -0.214548 0.493197
0.00089429 0.460752 0.0814185 -0.109771 0.235353 0.965691
0.112678 0.213001 0.0114279 0.972906 -0.0752203 0.218622
0.111709 0.101543 0.000641811 0.983939 0.0422501 -0.173434
-0.0975173 0.245832 0.313542 -0.551205 0.145807 -0.821531
-0.0522678 -0.473798 0.0955325 -0.408408 -0.899195 0.157007
-0.049118 -0.0950836 -0.0457283 -0.100647 -0.345133 0.933142
-0.0244942 -0.0381431 -0.00689977 -0.65419 -0.744636 -0.132483
-0.0534794 0.0782214 0.045543 -0.8931 0.139964 0.42753
0.0363533 0.18659 0.195663 0.59888 -0.753465 -0.271354
0.0216942 0.22875 -0.276701 0.725118 -0.281843 -0.628306
-0.0439842 -0.00258037 0.0719386 -0.922817 0.180838 0.340157
0.045591 -0.488579 0.0912317 -0.0209067 -0.96064 0.277007
-0.0138737 -0.228591 0.0777537 -0.676017 -0.178069 0.715048
-0.0203941 0.454695 0.0745433 -0.415934 0.165028 0.894296
-0.0159096 0.358017 0.0804493 -0.592488 0.0861452 0.80096
0.00589924 0.255524 -0.223031 -0.603976 0.637094 0.478878
0.0845104 0.225721 -0.15337 0.864691 -0.48962 0.112166
-0.00614001 0.315615 -0.0287976 -0.77471 0.599711 -0.200428
-0.1083 -0.0882386 -0.0759552 -0.840212 0.276122 0.466691
-0.0855841 0.268609 0.321053 -0.391126 0.725022 -0.56689
0.0465602 0.193496 -0.171179 0.320667 -0.931241 0.173099
0.0281757 -0.317999 0.0261514 -0.195251 -0.204076 -0.959286
0.0384734 -0.10102 0.0182805 0.49852 -0.0661481 -0.864351
0.0242384 -0.410558 -0.107575 0.342759 -0.865682 0.364844
0.0435921 -0.0215304 -0.0641431 0.698008 -0.511664 -0.500984
-0.0103045 -0.251609 0.0707573 -0.770117 -0.282675 0.571853
0.0867517 -0.455868 0.0834175 0.6012 -0.19192 0.775709
0.0347481 -0.0520753 0.0112046 0.662391 -0.0428273 -0.747933
-0.0691077 0.246559 -0.306261 -0.708301 0.387511 0.590038
-0.000180919 -0.321149 -0.0875856 0.270163 -0.136174 0.953136
0.0482261 0.05384 -0.0833454 0.551479 -0.0480275 -0.832805
-0.0403649 0.267882 0.0556742 -0.967914 0.237531 -0.0819909
0.0915371 0.0702255 0.0805705 0.756001 -0.0367225 0.653539
0.0906285 0.23929 -0.140892 0.939663 -0.342046 0.00620385
0.00803457 -0.282381 0.087052 -0.412161 -0.357966 0.837844
-0.0523284 0.0761013 0.048178 -0.885315 0.131221 0.446092
0.0347784 0.0284288 -0.0903721 0.362892 -0.381563 -0.850129
-0.0287724 0.360198 0.0469665 -0.96083 0.0191571 0.276475
-0.109511 -0.0836349 -0.0847992 -0.855692 0.331282 0.397547
-0.0403649 0.267882 0.0556742 -0.967914 0.237531 -0.0819909
-0.0529342 0.443064 0.0115907 -0.846741 0.0900756 -0.524324
-0.052813 0.0694986 -0.0485148 -0.96642 0.0327238 -0.254875
-0.0114063 0.472383 0.072514 -0.296246 0.615887 0.730015
0.0937179 -0.381482 0.0649119 0.895623 0.147858 0.41952
0.0617342 -0.180615 0.056916 0.98712 0.159039 -0.0173445
0.046742 0.460025 0.0177108 0.81947 0.439992 -0.367256
-0.0393957 -0.472829 0.105709 -0.21258 -0.97712 0.00674778
0.0892353 -0.485186 0.0433472 0.25156 -0.345007 -0.904261
-0.0372604 -0.22532 -0.144284 0.45405 0.207382 -0.866505
0.0253287 0.421742 0.0803282 0.343654 -0.23296 0.909743
-0.0389413 0.19289 -0.0327653 -0.765394 0.174238 -0.619526
0.108559 0.225116 -0.0219224 0.87767 0.0223814 -0.478742
-0.0229723 -0.483733 0.114371 0.0423427 -0.946032 0.321294
-0.0131707 0.305196 0.0956536 -0.880118 0.421178 0.219091
-0.0257436 0.240623 0.323234 -0.579597 -0.437466 -0.687525
0.0169997 -0.257667 0.0208 -0.106748 -0.0130275 -0.994201
0.093839 0.265216 -0.116177 0.98682 -0.0197159 -0.160615
-0.0313544 0.237715 0.10686 -0.888001 -0.0782748 0.453131
0.0528297 -0.36234 -0.112421 0.772937 0.32187 -0.54678
-0.0458166 0.0386357 0.0511008 -0.891779 -0.431687 0.135561
0.0564642 0.215908 0.241579 0.988104 -0.0913066 0.123746
0.0534961 0.204763 -0.222547 0.485651 -0.810601 -0.327215
0.0196346 -0.40862 -0.104849 0.198463 -0.848695 0.490233
0.0237537 -0.15057 0.0142731 0.340937 -0.0157866 -0.939954
-0.105756 -0.210539 -0.109635 -0.848952 -0.498928 0.174218
0.0186957 0.347598 -0.00533997 -0.620054 0.458708 -0.63649
-0.0528736 0.222693 0.339952 0.330332 -0.396771 0.856419
-0.0150473 0.308103 -0.0190753 -0.829419 0.54525 -0.121515
-0.0221091 -0.239858 -0.0924316 0.619763 0.22624 0.751472
0.0156215 -0.484459 0.0645787 0.0671241 -0.964819 -0.254201
0.04232 -0.439634 0.0900202 -0.247186 0.214652 0.944893
0.0208461 0.277331 0.21856 -0.22034 0.711745 0.666985
-0.0550543 -0.424854 -0.158701 -0.784023 0.549779 -0.288185
0.060341 0.116868 -0.0740168 0.421894 0.251193 -0.871153
-0.0235629 -0.402078 -0.123567 -0.810465 0.326088 0.486635
-0.0532068 0.234202 -0.320315 0.686979 -0.688213 0.233288
-0.0186336 -0.137728 0.0146365 -0.499159 -0.175016 -0.848652
-0.0322175 -0.206905 -0.137621 0.649264 0.361277 -0.669279
0.0559191 -0.385117 0.0136276 -0.0298193 -0.0647402 -0.997457
-0.0548423 0.0383328 -0.0434568 -0.939551 0.275573 0.203232
-0.000430805 0.206095 -0.248836 -0.363238 -0.882464 -0.298856
-0.0103727 -0.322845 0.0554319 -0.845416 -0.302355 0.440288
-0.0223665 0.243288 -0.251986 -0.855496 0.0975871 0.508531
0.0747579 0.26134 0.126547 0.95467 -0.0948125 0.282164
0.108135 0.202097 0.0567039 0.988896 0.0121904 0.14811
0.0204524 0.15291 -0.0698977 -0.382549 0.248013 -0.890025
0.0159547 -0.185704 0.0118179 -0.00666595 -0.0651704 -0.997852
0.0543441 -0.149964 0.0746947 0.918282 -0.0277261 0.394955
-0.0599003 0.116384 0.0179044 -0.994944 0.0576357 0.0822424
-0.047119 -0.0173583 -0.116662 -0.292663 0.0887602 -0.952087
0.0939601 -0.447872 0.0793893 0.736913 -0.067089 0.67265
-0.0860081 -0.106229 -0.133865 -0.0307217 0.323422 -0.945756
0.0298415 -0.108531 0.0969863 0.403589 -0.188703 0.89527
0.109649 0.287023 -0.0017509 0.965379 0.22347 -0.134556
0.094687 0.210457 0.0868703 0.686415 -0.0170699 0.727009
0.00229505 -0.485186 0.0710905 -0.0430348 -0.991859 -0.119845
0.0296295 0.351475 0.110919 -0.167585 0.919391 0.355858
0.0937784 0.262793 -0.118721 0.987972 -0.0107358 -0.154262
-0.0674419 0.268366 0.34286 0.49407 0.794577 0.352906
0.0595535 0.294292 -0.143072 0.0248609 0.818847 -0.573473
0.0647024 0.222693 -0.0926134 0.687196 -0.716638 0.11913
-0.0385173 0.0708313 -0.0751072 -0.742495 0.430721 -0.513012
0.0457425 -0.229439 0.0271509 0.57367 0.0916154 -0.813947
0.0474688 0.391455 0.0309444 0.977508 0.209242 -0.0263956
-0.0485122 -0.428246 -0.137742 -0.540179 0.0584376 0.839519
0.0809365 0.298411 -0.116177 0.636684 0.648758 -0.41683
-0.0475127 0.0411495 -0.0146534 -0.982516 0.143957 0.118064
-0.0355492 -0.0238928 -0.0103525 -0.91295 -0.40488 -0.0509277
-0.0194855 -0.415646 -0.162577 -0.352456 0.512352 -0.783116
0.112557 0.248255 0.0185076 0.950716 -0.0185353 0.309509
0.0343544 0.0233405 0.113584 0.33061 -0.219657 0.91785
0.0632486 0.247044 0.197601 0.988699 0.08486 0.123586
0.0514971 -0.395293 -0.121629 0.893396 -0.393653 -0.216522
0.0819663 -0.441815 0.0928672 0.37974 0.222897 0.897839
-0.00152117 0.281208 0.193603 -0.702842 0.537029 0.466489
-0.0163204 -0.403774 -0.11545 -0.625818 -0.0709736 0.776733
0.0401696 0.261824 -0.236963 0.416298 0.890691 -0.18266
-0.0190993 0.420046 0.0759971 -0.332328 0.0104063 0.943106
-0.0231616 0.106086 -0.064446 -0.539646 0.488182 -0.685901
0.0157578 -0.0689152 -0.0599634 0.855966 -0.485219 0.178566
-0.106725 0.230689 0.369998 0.436514 -0.61123 0.660192
0.0516788 0.0351829 -0.0859501 0.512834 -0.198839 -0.835143
-0.000703397 0.32773 0.121216 -0.7675 0.63454 0.0911218
0.0729406 -0.443026 0.0360782 0.205655 -0.240455 -0.948624
0.0493769 0.422954 0.0550078 0.883603 -0.198167 0.424235
0.0625217 -0.416131 0.03838 -0.218903 0.0760328 -0.97278
0.0958985 0.27612 -0.0704429 0.999231 -0.0230066 -0.0317427
-0.00785122 -0.412739 -0.109271 -0.29911 -0.376597 0.87676
-0.00414859 -0.455141 0.0669411 -0.264173 0.958348 -0.108542
0.0455607 0.355837 -0.0350974 -0.173147 0.98346 -0.0531713
-0.0124521 -0.395778 -0.152522 -0.346254 0.642657 -0.683447
-0.0472402 0.0340623 0.00921317 -0.99311 0.0494758 -0.106229
0.106439 0.233233 0.0584303 0.99511 0.0823054 0.0546132
-0.102363 -0.154326 -0.145859 -0.220364 0.0795647 -0.972167
0.0254499 -0.0649475 0.105224 0.233238 -0.0473276 0.971267
-0.134892 -0.160505 -0.108908 -0.980097 -0.195716 -0.0332547
0.0110027 0.237836 0.3007 0.493473 0.722653 0.484001
-0.0801323 -0.0127622 -0.0999429 -0.508278 0.220879 -0.832386
-0.030688 0.224631 -0.307473 -0.20564 -0.956188 -0.208368
0.0228148 -0.399897 0.0540992 -0.817413 -0.565404 -0.110246
-0.0881282 -0.288439 -0.122719 -0.688615 -0.0115348 -0.725036
0.000530813 0.319976 0.156895 -0.658616 0.615476 0.432914
0.00900373 0.335726 0.138238 -0.648405 0.749821 0.131676
0.0103818 0.227781 -0.284212 0.51673 -0.498225 -0.696248
-0.0040123 0.220512 -0.270643 -0.118309 -0.976977 -0.177534
-0.0272352 -0.483975 0.0681526 -0.156223 -0.870225 -0.46723
-0.0457561 0.211547 0.0209287 -0.979819 0.19048 -0.0605965
-0.0223286 0.277089 -0.290754 0.0269899 0.995248 0.0935549
-0.0784968 -0.00920719 -0.0991554 -0.426851 0.289989 -0.856565
0.0101849 0.200159 -0.156035 -0.788427 -0.448827 0.42064
-0.0822525 -0.273416 -0.124294 -0.789477 0.0346905 -0.612799
0.0123353 -0.485186 0.0755428 0.0378379 -0.998366 -0.0428269
-0.0837062 0.211062 0.335833 -0.247223 -0.890484 0.381993
-0.107149 0.259401 0.33753 -0.451776 0.860111 -0.236872
-0.140647 0.224873 0.359094 -0.969256 0.171226 0.176703
-0.0345043 -0.130338 0.0733015 -0.773731 -0.103616 0.624984
0.0461362 -0.487609 0.0879606 -0.00470664 -0.882708 0.469898
-0.0448777 -0.160141 -0.10594 0.99691 0.067392 -0.0403496
0.0277214 0.44258 0.0799647 0.428107 0.060047 0.901731
0.00201491 0.411565 -0.00497652 0.0288156 -0.295202 -0.955
0.0767568 -0.46241 0.0868703 0.385254 -0.138442 0.912367
-0.0898243 0.246559 0.367817 0.253055 -0.312821 0.915481
-0.0308849 0.208518 0.22692 -0.910303 0.404033 -0.0900312
0.0725166 0.179684 0.103286 0.688088 0.00456204 0.725613
0.0809365 -0.400624 0.0426051 0.741979 -0.0182209 -0.670175
0.0596141 -0.184977 0.0459216 0.953835 0.229274 -0.193989
0.0895987 -0.370094 0.0539478 0.969466 0.123608 -0.211793
0.0892959 0.317069 0.0654873 0.919247 0.374232 0.122209
0.0185443 -0.0562853 0.00391286 0.322483 -0.0892399 -0.942359
-0.00595069 -0.17056 0.0863857 -0.509347 -0.179039 0.841731
-0.0211171 -0.38342 -0.119206 -0.901612 0.0900209 0.423074
0.0530114 0.128923 0.128667 0.515494 -0.0743712 0.85366
0.012199 0.250194 -0.116056 -0.992181 -0.0918385 -0.0845136
-0.107573 -0.112408 -0.0698977 -0.691774 0.078519 0.717832
-0.030264 0.342268 0.0430291 -0.986471 0.162687 -0.0202129
0.061916 0.229598 0.154593 0.940542 -0.335335 0.0541447
0.00871598 -0.256698 0.0921403 -0.441748 -0.118084 0.889334
0.0952928 0.0366064 -0.0408218 0.854308 -0.224041 -0.469002
-0.0315361 0.293808 0.0594601 -0.935009 0.348443 0.0659302
0.0113359 0.0148146 0.118309 0.0260731 -0.198088 0.979837
-0.111631 0.258674 0.339226 -0.468884 0.850591 -0.237998
-0.0507837 0.26037 -0.304807 -0.766158 0.642612 0.00713658
-0.0310818 -0.196365 0.0434683 -0.805344 -0.118492 -0.580844
-0.0389413 0.124319 0.0823271 -0.850119 -0.0926891 0.518369
-0.0820101 -0.0583449 -0.118115 -0.287997 0.409198 -0.865803
0.0498615 0.201249 -0.217337 0.44294 -0.847982 -0.291086
-0.0013167 0.401147 -0.00193262 -0.00984068 -0.385067 -0.922836
0.0154247 0.26982 -0.249321 -0.0921741 0.994891 -0.0411838
0.0519817 0.00929467 -0.0661421 0.532598 -0.454537 -0.713958
0.00043238 -0.370336 -0.15761 0.0723291 -0.240574 -0.967932
0.0491346 -0.110591 0.0312852 0.929106 0.0267191 -0.368847
0.0459847 0.4152 0.0113333 0.770132 -0.266773 -0.579421
0.0212096 -0.316061 0.0297632 -0.410498 -0.390899 -0.823826
-0.015248 0.263036 -0.24714 -0.676653 0.505374 0.535479
0.0553739 0.428042 0.0369111 0.996126 -0.0862071 0.0173756
-0.03564 0.112749 0.0849319 -0.869923 -0.138535 0.473331
-0.0202426 -0.290377 -0.085829 0.235871 0.171067 0.956609
0.0557979 0.217362 0.244244 0.949853 0.1545 0.271861
0.0443795 -0.33496 0.0225207 -0.215412 -0.175925 -0.960546
-0.0170757 0.214939 0.119217 -0.861919 -0.236685 0.448414
-0.0192885 0.240865 0.163316 -0.980516 -0.173271 -0.0925549
0.112314 0.126621 0.0180346 0.996593 0.04777 -0.067238
-0.01608 -0.211509 0.0339278 -0.651231 -0.103428 -0.751798
0.0351418 -0.270266 0.0865674 0.0891083 -0.22206 0.970953
0.0493164 -0.155174 0.0301797 0.798063 -0.0411714 -0.601165
0.0549498 0.281693 -0.157974 -0.0399992 0.815318 -0.577631
-0.0751046 -0.188369 -0.0762581 -0.0823467 -0.0554624 0.995059
0.0826932 0.0570202 -0.0623864 0.631162 -0.182917 -0.753775
0.00582352 -0.486398 0.113342 0.0311191 -0.214452 0.976239
0.00715623 -0.329388 0.0585212 -0.703148 -0.569501 0.425736
0.0650659 -0.340533 0.0264695 0.333474 -0.0430708 -0.941775
0.0238446 0.260613 -0.146101 -0.751636 0.281356 -0.596559
-0.0206288 0.267639 0.157622 -0.972416 0.200106 0.119855
0.089417 0.113597 -0.0571164 0.636386 0.180297 -0.750004
-0.0708947 0.253586 -0.318619 -0.798247 0.601068 0.0389652
0.0395941 0.261582 -0.240113 0.431941 0.842354 -0.322285
-0.117265 0.251405 0.376055 -0.189992 0.505153 0.841857
0.00998806 -0.274628 0.09105 -0.106418 -0.259288 0.959919
-0.0420004 -0.475737 0.0658811 -0.704534 0.310545 -0.638117
-0.00118801 -0.261544 0.0822666 -0.729532 -0.0984878 0.676818
-0.0296279 -0.227016 0.0526757 -0.955396 -0.17514 -0.237791
-0.0410615 -0.119495 0.05313 -0.99645 -0.0651586 0.0533048
0.00252223 0.252374 -0.237933 -0.447763 0.607286 0.656286
0.0249653 0.321188 -0.0917047 -0.360818 0.71707 -0.59634
0.0304473 0.310526 -0.116298 -0.252296 0.710325 -0.657103
-0.0445748 0.21603 0.0183955 -0.983289 0.167516 -0.0712823
0.000356653 0.277816 0.200509 -0.657722 0.538906 0.52629
0.00344598 -0.0332668 -0.106243 0.671594 -0.121704 -0.730855
0.102562 0.185863 0.0774206 0.864472 -0.0374613 0.501284
-0.0240021 -0.0689757 -0.1186 0.719047 -0.0040022 -0.69495
2.34925e-05 0.238684 -0.211159 -0.808128 0.326232 0.49041
-0.0181414 0.348568 0.00398101 -0.523264 -0.00469351 -0.852157
0.112435 0.0913056 0.00607084 0.986299 0.030855 -0.162057
-0.0467555 0.208882 0.0362448 -0.994367 0.105916 0.00391936
0.0423806 -0.422673 0.0919586 -0.396124 0.064867 0.915903
-0.0214579 0.346629 0.0136238 -0.62901 -0.0985513 -0.771125
0.00288564 0.240623 -0.207282 -0.799868 0.331549 0.500286
0.0107149 0.445003 -0.0102163 0.120999 0.0391679 -0.99188
-0.0612026 0.120806 -0.00205377 -0.997801 0.064375 -0.0157648
0.0440767 0.23505 0.262901 0.636186 0.679679 0.365108
0.0540412 0.263036 -0.193228 -0.0485443 0.982595 -0.179308
0.0708811 -0.491971 0.0669411 -0.394938 -0.917777 -0.0413453
-0.0724696 0.23299 -0.335822 -0.728441 -0.306966 -0.612491
0.0630669 0.0988775 -0.0780148 0.477457 0.186429 -0.85865
0.0545864 0.210335 0.212866 0.967088 -0.254034 -0.0143953
0.0743338 -0.493425 0.0709996 0.025479 -0.937613 0.346745
-0.0360943 0.138494 0.0849319 -0.854789 -0.0464011 0.516897
0.0215428 0.26037 0.234067 -0.364985 0.734475 0.57213
0.0505279 0.263763 -0.201588 -0.0408874 0.999146 -0.00589353
-0.0231162 0.179321 -0.048333 -0.561392 -0.0488213 -0.826109
-0.00872202 0.299623 -0.0554203 -0.752818 0.362646 -0.549321
0.0153641 -0.152993 0.010489 0.258291 -0.0964989 -0.961235
-0.0459378 0.0386054 0.0514642 -0.891779 -0.431687 0.135561
-0.0171173 -0.0807879 0.0932912 -0.509372 -0.0970949 0.855051
0.013562 0.265701 0.225587 -0.491227 0.552592 0.673304
0.0275094 -0.340291 0.0720597 -0.666971 -0.396116 0.631065
-0.0507232 0.250194 0.337045 0.683562 0.395677 0.613337
-0.0870984 -0.0387489 -0.0699583 -0.77103 0.344997 0.535247
-0.0478762 0.136313 -0.0304331 -0.824944 0.146663 -0.545854
-0.00777176 -0.098294 0.0985612 -0.371669 -0.0206723 0.928135
-0.0555389 0.204763 0.330261 -0.00296163 -0.803866 0.594803
0.0528903 -0.0530143 0.081782 0.823498 0.0132249 0.567165
0.0183625 0.342995 0.124427 -0.547928 0.819613 0.167359
0.112678 0.265701 0.0176006 0.972501 0.096419 0.212002
0.0119568 -0.248459 0.0216651 -0.115942 0.0106845 -0.993199
-0.0205985 0.29405 0.108314 -0.906197 0.349547 0.237956
0.0641573 -0.454172 0.0954719 0.221437 -0.0576546 0.973469
-0.0298399 0.127469 -0.0500897 -0.650424 0.193828 -0.734425
-0.0404254 0.256978 0.0786321 -0.963454 0.185331 0.193412
-0.0343225 0.101906 0.0782989 -0.86833 -0.072463 0.490665
0.0608862 0.247528 0.208505 0.948911 0.205767 0.239223
0.00577811 -0.276809 -0.113754 0.906737 0.419958 -0.0382607
-0.0140848 -0.484459 0.109465 0.0820388 0.344079 0.93535
-0.013433 -0.129127 0.0877789 -0.576409 -0.128059 0.807065
-0.0363064 -0.0187591 0.0886875 -0.786944 0.113015 0.606586
0.0677918 -0.258636 0.0823877 0.730164 -0.00918642 0.68321
-0.0151534 0.301319 0.0949873 -0.897827 0.38408 0.215383
0.0329309 -0.022015 0.0106178 0.368147 -0.749095 -0.550748
-0.0287572 0.177019 0.218681 -0.596359 -0.528179 -0.604469
-0.0101096 0.220754 0.238429 -0.589696 0.804962 0.0655368
0.00942778 -0.0425954 0.10892 0.131286 -0.0121483 0.99127
-0.0335804 -0.0750332 0.014292 -0.770425 -0.259796 -0.582195
-0.0698649 0.209366 0.323961 -0.174516 -0.926692 0.332845
-0.00459534 -0.326722 -0.0855261 0.0101144 -0.405473 0.914051
0.0929303 0.208155 0.0879 0.686415 -0.0170699 0.727009
0.0152278 0.38782 0.00536666 -0.147409 -0.0273248 -0.988698
-0.0331867 0.084703 -0.0698977 -0.606358 0.441435 -0.661411
0.0249349 -0.315092 -0.125627 0.88302 0.307611 -0.354472
-0.00786258 0.482559 0.00735049 -0.10137 0.781862 -0.615155
0.0688215 -0.335687 0.0819031 0.586534 0.116683 0.801475
-0.0466647 -0.0492586 0.0569765 -0.990907 -0.101746 0.0880429
-0.00648452 0.367709 0.0828118 -0.507967 0.19263 0.839562
0.00758021 0.309073 -0.0666267 -0.816591 0.418906 -0.39711
-0.0520255 0.238806 0.292462 -0.220418 0.604553 -0.765462
0.0408965 -0.41177 0.0825695 -0.690591 0.054265 0.721207
-0.0264024 -0.215749 -0.135682 0.719809 0.276729 -0.636629
0.0791192 0.237473 -0.0924316 0.772792 -0.612919 0.164687
-0.0441053 0.140795 -0.0364906 -0.778456 0.0649791 -0.624327
0.0188775 -0.0596472 -0.0663844 0.917418 -0.376306 -0.129372
-0.0506323 -0.162564 -0.143436 0.465697 -0.104378 -0.878767
-0.00422432 -0.252336 -0.116783 0.88359 0.43148 0.181914
-0.0559932 0.380793 0.030051 -0.773342 -0.458437 -0.437923
-0.064292 0.0730725 0.020641 -0.981434 0.0236645 0.190332
-0.02616 -0.407166 -0.122356 -0.669003 0.184131 0.720091
0.0415931 -0.375909 -0.129504 0.657698 0.216231 -0.721579
0.0508308 0.429496 0.0563102 0.884478 -0.130765 0.447884
0.0276305 0.348083 -0.0326744 -0.482884 0.867884 -0.116619
-0.033853 0.343479 0.0551896 -0.953998 0.209471 0.214496
-0.00759379 0.467537 -0.00605172 -0.0919743 0.43071 -0.897792
0.0177871 -0.401835 -0.0992766 0.0716841 -0.66059 0.747317
0.0299021 0.243167 0.268959 0.473223 0.80185 0.364823
0.00403658 0.287023 -0.0713515 -0.820701 0.196428 -0.536531
0.0648841 -0.204603 0.0430291 0.898215 0.16219 -0.40854
0.0791192 0.305438 -0.110604 0.63656 0.597448 -0.487696
-0.0267279 -0.484459 0.0891116 -0.154834 -0.977691 0.141937
-0.00519355 0.39727 -3.96559e-05 -0.0257632 -0.399022 -0.916579
0.0260253 0.184167 0.181125 -0.395041 -0.832179 -0.389128
-0.0133043 0.268366 -0.249563 -0.497401 0.626692 0.599874
0.0380495 0.320945 0.171312 0.299306 0.716268 0.630378
0.0817846 0.191315 0.0954719 0.575372 0.0253862 0.817498
0.0419263 0.470444 0.0431049 0.757076 0.634533 0.155573
-0.0273337 0.270062 0.11104 -0.874224 0.258768 0.410819
0.00714107 -0.310004 0.0290818 -0.40602 -0.482303 -0.776229
-0.00841156 0.242561 -0.311107 0.719355 -0.3253 -0.613765
0.0907497 0.244257 -0.123446 0.939916 -0.335254 0.0645245
-0.0238052 -0.0902376 0.00863771 -0.560824 -0.226953 -0.796222
0.088993 -0.347802 0.0445132 0.917201 0.05446 -0.394685
-0.091581 -0.26857 -0.104244 -0.776326 -0.0178624 0.630079
0.102925 0.3035 -0.0126241 0.930148 0.261774 -0.257487
-0.0681385 0.226448 -0.311592 0.474303 -0.130042 0.870704
-0.0234569 0.329668 0.0448313 -0.802399 -0.595293 0.0422013
0.0639755 -0.491728 0.0864462 0.250636 -0.681368 0.687691
-0.0659881 -0.00214546 -0.0544511 -0.896387 0.0554422 0.439791
-0.0226089 0.228266 0.117945 -0.893446 -0.176774 0.412922
-0.0634439 0.0883374 -0.00384074 -0.994436 0.0785891 -0.0701422
0.0622794 0.0113845 0.096744 0.505696 -0.266965 0.820367
-0.117871 -0.130459 -0.0815281 -0.666322 -0.0619434 0.743087
-0.0947915 0.217847 0.322507 -0.744248 -0.597156 -0.299164
0.0610074 0.0134516 -0.0635374 0.495652 -0.537589 -0.682149
-0.0505414 -0.0238474 -0.115571 -0.326677 0.110891 -0.938608
0.0516182 0.414715 0.0280141 0.955798 -0.255458 -0.145575
0.088993 -0.347802 0.0445132 0.917201 0.05446 -0.394685
-0.0641405 0.0687111 -0.0179547 -0.88338 -0.303008 -0.357528
-0.0580527 -0.449326 -0.149251 -0.0902956 -0.994071 0.0605733
-0.0269778 -0.1221 -0.107454 0.714408 -0.381606 -0.586513
0.0395638 -0.27172 0.0880212 0.0299429 -0.206934 0.977897
-0.0378055 0.236504 0.0932307 -0.932134 -0.0696151 0.355359
-0.019103 -0.259605 0.0565222 -0.883218 -0.442129 0.156361
0.00243134 0.299381 0.175067 -0.731402 0.468689 0.49536
0.0292661 -0.163897 0.0919586 0.343605 0.0520605 0.93767
-0.0270914 0.458087 0.0702122 -0.49714 0.255124 0.829315
0.024208 0.37934 -0.00073627 0.142593 0.201377 -0.969079
0.0800279 0.236262 -0.0999429 0.783822 -0.588189 0.19914
-0.053025 0.191194 0.256117 -0.946911 -0.0187496 -0.320949
0.11716 0.21712 -0.0045222 0.998776 0.0324834 -0.0372948
-0.119445 -0.189944 -0.0978834 -0.761351 -0.353753 0.543326
0.089841 0.334756 -0.0105191 0.829552 0.524793 -0.190884
0.000212811 -0.456353 0.0841444 -0.368717 0.826526 0.425326
0.0350813 -0.482279 0.0638518 0.102213 -0.957552 -0.269531
0.0100486 -0.312184 0.0784504 -0.661024 -0.205906 0.72156
0.0243595 0.215787 -0.26822 0.391669 -0.732954 -0.556214
0.10553 0.141643 -0.021044 0.957335 -0.0325654 -0.28714
-0.0508443 0.00744713 0.0050865 -0.999975 0.00652424 0.00275204
0.0370197 0.206822 -0.10176 -0.258593 -0.921455 0.289913
0.0900833 0.233839 -0.17554 0.97243 -0.101929 -0.20974
-0.0908541 -0.0376282 -0.0840723 -0.857173 0.47074 0.208946
-0.0198375 -0.349256 -0.144405 -0.59106 -0.448746 -0.67028
0.0101093 0.190588 0.141388 -0.289547 -0.675571 0.678061
-0.0331716 0.405508 0.0705453 -0.411351 -0.0964214 0.906363
0.0219971 0.245105 -0.159549 -0.746143 0.622446 -0.236287
-0.0144189 0.277816 0.132847 -0.975015 0.145103 0.168196
0.0996542 -0.468952 0.0536752 0.836181 0.166706 -0.522505
0.0800279 0.239775 -0.0874645 0.772749 -0.616486 0.15101
0.0912948 0.303984 -0.0645066 0.96861 0.247895 -0.0184895
0.0851162 0.321188 -0.0646277 0.895978 0.426504 -0.123767
-0.0241535 0.294535 0.00323139 -0.894751 0.446147 -0.0193164
-0.0180884 0.23396 -0.25344 -0.888137 -0.235087 0.394901
0.0931121 0.0994832 -0.0537848 0.758586 0.0582601 -0.648962
-0.0363669 -0.0252558 -0.0178638 -0.869346 -0.372275 0.325037
0.055495 -0.175527 0.0775115 0.835234 0.0689569 0.545554
-0.00787399 0.177383 0.126607 -0.659787 -0.132564 0.739668
0.0788164 0.234323 -0.101518 0.758989 -0.623815 0.186521
-0.00631036 -0.210539 0.0786624 -0.489381 0.00367723 0.872063
-0.0298399 0.00270334 -0.116904 0.0774406 0.199223 -0.97689
-0.0286361 0.269578 0.108738 -0.870837 0.27456 0.40775
0.0223908 -0.00468016 0.106557 0.298639 -0.254019 0.91994
0.0810577 0.242198 -0.0583279 0.893171 -0.282981 -0.349524
0.062764 0.0615027 -0.0754706 0.522314 -0.0991703 -0.846967
-0.1083 -0.167895 -0.146222 -0.349198 -0.0843477 -0.933245
0.102198 0.205611 0.0796013 0.889417 0.0965845 0.446775
-0.0113286 0.24874 0.296096 0.355915 0.934095 0.028125
-0.0594157 -0.278747 -0.143193 -0.525201 -0.194553 -0.82844
0.0703965 -0.346833 0.0911711 0.361037 -0.203892 0.909989
-0.116296 -0.116588 -0.132775 -0.503984 0.33093 -0.7978
-0.0173539 0.328941 0.0289455 -0.792302 -0.550058 -0.263996
-0.0915204 -0.21902 -0.0932797 -0.436095 -0.583042 0.68548
0.0545864 0.437976 0.0460276 0.97514 0.0727552 0.209306
0.00892801 0.272001 0.217712 -0.519733 0.531646 0.668753
-0.00532985 0.303984 0.160408 -0.747173 0.418688 0.516171
-0.0279848 0.191436 -0.045486 -0.679692 0.115675 -0.724319
0.0730618 0.340329 -0.0560866 0.759646 0.631883 -0.153825
-0.0454229 0.169508 0.067032 -0.952353 0.0494553 0.300962
0.01335 -0.212357 0.0912317 -0.391976 0.0778695 0.916674
-0.027576 0.301804 0.052282 -0.852825 0.496209 -0.162686
0.105409 0.204278 0.0695761 0.909682 0.0693924 0.409467
0.0929303 0.0873682 -0.0548751 0.758691 -0.00649621 -0.651418
-0.0331867 0.0825222 -0.071291 -0.593357 0.440608 -0.673641
-0.0621416 0.0768282 -0.0109583 -0.963015 -0.20245 -0.17781
0.0367471 -0.236223 0.0205861 0.299359 -0.0277222 -0.953738
-0.0458166 -0.128884 -0.134228 0.796388 -0.0506553 -0.602661
0.0212096 -0.31388 -0.100852 0.777658 -0.00738157 0.628644
0.110861 0.285085 0.0141576 0.966177 0.213741 0.144284
-0.0116712 -0.429942 -0.135076 0.442648 -0.882435 0.159282
-0.0189932 0.2382 0.196753 -0.959138 0.271685 0.0790043
0.0479231 0.459541 0.0472694 0.902761 0.377145 0.206844
-0.0120139 0.415442 -0.00464335 -0.157038 -0.129452 -0.979072
-0.0168977 0.179684 0.209111 -0.336072 -0.57152 -0.748612
0.0859036 0.325307 0.0593995 0.873562 0.465654 0.141617
0.102138 0.0953641 0.0682132 0.850212 -0.0695876 0.521821
0.0990484 0.258917 0.0833569 0.832542 0.0309718 0.553095
-0.020182 0.431919 -0.00444648 -0.264217 -0.0805014 -0.961098
0.0312953 0.179806 0.233583 0.42627 -0.902698 0.0585725
-0.0259632 -0.189823 0.0391978 -0.812878 -0.163086 -0.559136
0.0616131 -0.261786 0.0879606 0.405564 -0.096984 0.908907
-0.0202389 -0.231862 0.0359419 -0.700336 -0.0387701 -0.71276
-0.0095625 0.0936075 0.104619 -0.578036 -0.060627 0.813756
0.0663985 -0.0135118 -0.0273741 0.72758 -0.674588 -0.124735
-0.0471795 0.164662 0.0651844 -0.951905 0.0503601 0.302227
0.0293872 -0.199151 0.0144207 0.263241 -0.116146 -0.957713
0.0513154 0.208518 0.200994 0.876955 -0.477739 -0.0521079
-0.048391 0.0309124 0.00595727 -0.99055 0.130109 0.0433851
0.0218154 0.0486305 0.120671 -0.141294 -0.0197772 0.98977
-0.0217229 -0.266874 -0.0917653 0.327243 0.187011 0.92625
0.00945803 -0.112771 0.00578311 0.090813 -0.12202 -0.988364
-0.0536913 -0.0548315 -0.0429722 -0.547509 0.0385764 0.83591
0.0444401 -0.0633726 0.0959565 0.785598 0.00274887 0.618731
-0.0421821 0.0734966 0.0692732 -0.86424 0.0842991 0.495967
0.0944447 0.266428 -0.0864953 0.993119 -0.112943 0.0309486
0.0279334 0.05384 0.121035 -0.0046498 -0.0581332 0.998298
-0.0597792 0.256736 -0.327099 -0.330224 0.816725 -0.473193
0.10656 0.220875 0.0358207 0.992086 0.073764 0.10161
0.0436829 -0.186309 0.0942604 0.52795 0.130472 0.839193
-0.0674419 -0.314365 -0.114481 -0.874264 -0.445927 0.191863
0.0143041 -0.024862 -0.08383 0.661549 -0.162913 -0.731992
0.0402604 0.0830674 -0.0923711 0.394908 0.0797847 -0.91525
0.0479535 -0.195275 0.0918374 0.784618 0.0501712 0.617946
-0.00913845 -0.0411718 0.106981 -0.253717 -0.0934538 0.962753
-0.0346708 -0.0726103 0.014381 -0.770425 -0.259796 -0.582195
0.00327937 -0.230893 0.0213793 -0.355702 -0.045191 -0.933506
0.0659745 0.104087 -0.0744409 0.486327 0.187234 -0.853481
0.0782106 0.308103 -0.107212 0.586191 0.627554 -0.512402
-0.042591 -0.0895107 0.0487989 -0.994473 -0.0672936 -0.0805862
-0.0156787 0.404781 0.0763302 -0.322145 -0.0816196 0.943165
0.0331731 0.455664 -0.00311384 0.501991 0.309268 -0.807687
-0.0289919 0.0256423 0.0942604 -0.829182 -0.0273801 0.558307
0.0676706 0.275393 -0.167908 0.35079 0.873014 -0.338811
0.0557374 0.000840677 0.0880212 0.594784 -0.400046 0.697277
-0.0202616 0.313676 0.0754519 -0.881775 0.348771 0.31754
0.0565248 0.295988 -0.140044 0.00590888 0.811119 -0.584852
0.0617342 0.0681054 0.101348 0.601699 -0.208334 0.771074
0.0443795 -0.0382945 0.0211862 0.541242 -0.396569 -0.741478
-0.0103026 0.476744 0.0678497 -0.153837 0.736749 0.658433
-0.0456652 0.236867 0.343587 0.505325 0.0522183 0.861348
-0.116659 0.23081 0.348675 -0.555215 -0.773231 -0.30635
0.0888718 0.268124 -0.141497 0.841469 0.404346 -0.358376
0.0606439 0.203793 -0.206797 0.517776 -0.829989 -0.207429
0.0125322 -0.342714 0.0370322 -0.13748 -0.461721 0.876307
0.0575545 -0.402804 0.0142125 -0.00777064 -0.513817 -0.857865
-0.0243958 -0.436484 -0.145253 0.43235 -0.900945 -0.0370274
0.0146826 -0.253305 0.0946845 -0.252049 -0.13238 0.958617
0.0236326 0.186711 -0.181356 -0.272497 -0.957442 -0.095137
0.00761052 0.208397 -0.156762 -0.887737 -0.26734 0.37477
-0.122717 0.247286 0.334864 -0.663759 0.453759 -0.594581
0.0557374 0.320703 0.149626 0.768989 0.479587 0.422674
0.00402142 -0.0650384 0.00313296 0.223626 -0.148692 -0.963266
0.0329005 -0.252578 0.0902625 0.118314 -0.261131 0.958025
0.00803457 0.265701 -0.24084 -0.145436 0.928774 0.340922
-0.0453017 -0.11471 -0.0542694 0.0497561 -0.463793 0.884545
0.0832384 0.215908 -0.18499 0.889992 -0.391633 -0.233535
