ply
format ascii 1.0
element vertex 815
property float x
property float y
property float z
property float nx
property float ny
property float nz
element face 0
property list uchar int vertex_indices
end_header
0.0456608 -0.0432746 0.0802985 0.786961 0.0312129 0.616213
-0.134939 -0.155364 -0.148958 -0.346432 -0.579622 -0.737579
-0.104779 0.295895 0.376524 0.231067 0.036992 0.972234
-0.0468152 0.0429155 0.0698118 -0.913502 -0.119199 0.38898
-0.00742974 0.0616223 0.109673 -0.566528 0.0166318 0.823875
-0.0296951 -0.103203 0.0149004 -0.785961 -0.11733 -0.607042
-0.00251134 0.260355 -0.234664 -0.87795 -0.474607 0.0628576
0.00267158 0.0721392 -0.100121 -0.0523365 0.391936 -0.918503
-0.0336162 0.286466 -0.298733 -0.356576 -0.933457 0.0388674
-0.0118873 0.293961 -0.0475965 -0.80552 0.299928 -0.511059
0.022693 0.252619 -0.155244 -0.910229 0.382957 -0.157569
-0.0559117 0.256003 0.337358 0.116211 -0.403979 0.907357
-0.0522096 -0.404989 -0.137232 0.143267 -0.975918 0.164494
-0.0125673 0.301939 -0.269479 -0.887556 0.293919 0.354763
-0.0469663 0.192902 0.0386087 -0.994788 0.101837 0.0051364
-0.0591453 -0.0983673 -0.0675424 0.336498 -0.73642 0.586902
0.0697771 0.309434 0.123696 0.864636 0.200259 0.460761
-0.0521039 0.0622267 -0.0484427 -0.983066 0.181955 -0.0217709
0.0439685 0.406624 0.0411623 0.95624 -0.291849 0.0207122
-0.0296799 -0.352767 -0.107011 -0.880438 -0.0514896 0.471358
0.0407651 0.397921 0.0535529 0.911539 0.246856 0.328874
0.108823 0.296379 0.00639316 0.941206 0.337787 -0.00548297
-0.0611097 -0.105137 -0.111363 0.681676 -0.561679 -0.468865
0.0142311 0.429109 0.0836832 0.225382 -0.0898912 0.970115
0.032001 0.202815 -0.164431 -0.348665 -0.937057 0.0189242
0.0759422 0.0297392 -0.0571464 0.722121 -0.342199 -0.6012
0.0918384 -0.470508 0.079694 0.642532 -0.0764881 0.762432
-0.00101536 0.325632 -0.0184938 -0.803922 0.539977 -0.249269
0.0131431 0.486166 0.0184606 0.358097 0.870452 -0.337758
-0.0529198 0.10103 -0.036989 -0.877569 0.229422 -0.420997
-0.13361 -0.0630088 -0.0779988 -0.763155 0.313907 0.564851
-0.0211132 -0.390966 -0.165277 -0.394909 0.768925 -0.502794
0.0163768 0.324182 -0.0614377 -0.727406 0.535892 -0.428604
-0.0388822 0.361656 0.0352542 -0.853682 -0.520374 0.0209225
0.088635 0.30895 -0.107132 0.695377 0.59765 -0.399081
-0.0346891 0.189396 0.251289 -0.382156 -0.923846 0.0215957
0.0993937 0.0718369 -0.0406155 0.903844 -0.0894886 -0.4184
0.0349324 -0.249895 0.0164983 0.319003 0.0437919 -0.946741
-0.0310398 -0.205652 -0.119099 0.867674 0.429819 -0.249794
-0.0317198 0.330468 0.0280465 -0.731976 0.367491 -0.573726
0.0961903 0.328292 0.0146303 0.856745 0.495286 0.143804
0.00613187 -0.202267 0.0112625 -0.317529 -0.167275 -0.933378
-0.0646153 0.448209 0.0394398 -0.969522 0.194557 0.148909
0.0469906 -0.0776358 0.082837 0.969325 -0.180902 0.166381
-0.0690276 -0.00742498 -0.117165 -0.161638 0.286822 -0.944249
-0.120856 -0.0478379 -0.131913 -0.138715 0.47458 -0.869213
-0.0299104 0.292994 0.31439 0.584717 0.804003 -0.108102
0.00629809 -0.36413 0.0441844 -0.994123 -0.0266448 -0.104924
-0.0847727 -0.271292 -0.139891 -0.531999 -0.207131 -0.82102
0.0108766 -0.0917188 0.0995794 -0.192741 -0.0434294 0.980288
0.0222397 0.170418 -0.0618608 -0.373611 0.126588 -0.918907
-0.0718079 0.0416462 -0.0810813 -0.861917 0.501893 -0.0721322
0.0386194 0.262289 -0.180629 -0.538932 0.820699 0.189753
0.0582328 0.164857 0.128592 0.8226 -0.058804 0.565572
-0.00254152 0.223848 -0.0541243 -0.751562 0.0189765 -0.659389
0.0109974 -0.321821 0.0365537 -0.711082 -0.365416 -0.600694
0.0300669 0.25552 -0.170354 -0.707721 0.706491 -0.000520714
0.0356275 0.440956 0.0720784 0.720956 0.0657788 0.689852
-0.00359928 0.315962 -0.0387418 -0.804813 0.516025 -0.293249
0.00111524 0.302423 0.184198 -0.679998 0.584093 0.443214
0.0484412 0.0607157 0.112756 0.540955 -0.162794 0.825146
0.0443916 0.205111 0.177187 0.790959 -0.59702 0.133982
0.100482 0.252135 -0.193685 0.944994 0.136063 -0.297443
0.0911736 0.00328078 0.0146 0.731703 -0.657239 -0.180689
-0.0344473 0.147208 0.0894856 -0.871597 -0.0681549 0.485463
-0.0482658 0.185528 0.000288532 -0.953963 0.262903 -0.144347
-0.0211368 0.471176 -0.000754092 -0.189162 0.495011 -0.848046
0.0424575 -0.477277 0.0993377 0.0209373 -0.666052 0.745611
0.00249027 0.247541 0.243794 -0.636896 0.705778 0.310228
-0.0383986 -0.0520991 0.0800567 -0.783985 -0.196402 0.588892
-0.00453609 0.2884 -0.0568442 -0.748882 0.236403 -0.619103
-0.0840474 0.00961208 -0.0669379 -0.76433 0.284013 0.578909
0.0248991 -0.294018 0.0114892 -0.252008 -0.16529 -0.953505
0.024748 0.188429 0.230617 0.287702 -0.957706 -0.0052768
-0.016666 0.259872 0.194836 -0.864127 0.371292 0.339745
0.0735246 0.339413 -0.0775757 0.613672 0.70076 -0.363788
0.0909318 0.241014 -0.111967 0.793915 -0.591958 0.138867
0.106768 0.141285 0.0644627 0.930407 -0.017117 0.366128
0.0135058 -0.269116 0.0117385 -0.304534 -0.0456256 -0.951408
-0.0321883 -0.301271 -0.143276 -0.871357 0.0536232 -0.48771
0.0687496 -0.316744 0.0809029 0.643211 0.0127503 0.765583
-0.0408768 -0.0878505 0.0624379 -0.957317 -0.0594668 0.282857
0.0375919 0.266641 0.242948 0.283763 0.831141 0.478208
0.0897835 0.241981 -0.218707 0.762734 -0.195546 -0.61644
-0.0420252 -0.482838 0.0832601 0.169308 -0.931778 -0.321129
-0.034674 0.0247527 0.0763093 -0.865952 -0.0872504 0.492458
-0.0388218 -0.218586 -0.139891 0.559939 0.349169 -0.751365
-0.00857818 0.479155 0.00445147 -0.0468179 0.73507 -0.676373
-0.0148188 0.354161 0.0813864 -0.589635 0.100173 0.801434
-0.161353 -0.103505 -0.106044 -0.946025 0.131792 0.296088
-0.0335255 0.337237 0.0655809 -0.44113 -0.689091 0.574942
-0.0840776 -0.136144 -0.0920818 0.696057 0.244114 0.675213
-0.0452135 0.20765 0.0290286 -0.994051 0.106814 -0.0213077
-0.0680907 -0.15077 -0.134814 0.766557 0.260075 -0.587156
0.0419739 0.225057 0.283685 0.847776 -0.0353205 0.529177
0.0349929 0.216837 -0.138441 -0.874051 -0.44044 0.205055
0.0821677 0.0786669 0.0934143 0.668245 -0.0961056 0.737708
0.079871 -0.00637293 0.0344684 0.793484 -0.605205 0.0641075
-0.0332989 -0.313601 -0.107374 -0.89306 -0.242676 0.378884
-0.00263221 -0.00746655 0.109069 -0.163146 -0.172456 0.971413
0.0180087 -0.134814 0.00786643 0.336962 -0.0765597 -0.9384
-0.019588 0.434428 -0.00486414 -0.146255 -0.13146 -0.980473
-0.0472081 0.0155354 0.0405277 -0.974079 0.129815 0.185249
-0.0560024 -0.407648 -0.150408 -0.128443 -0.990093 -0.0567301
-0.0998832 -0.0784215 -0.0604707 -0.249886 -0.130658 0.959419
-0.0725937 0.242706 0.291905 -0.948519 -0.244565 -0.201248
-0.00317615 -0.294018 -0.14243 0.428627 -0.0675722 -0.900951
0.0585954 0.306774 0.153131 0.874741 0.311405 0.37129
0.0655463 0.0127475 -0.0538221 0.662874 -0.560278 -0.496675
0.0466279 -0.0753994 0.0699025 0.981738 -0.182981 0.0520457
-0.0457574 0.20499 0.0372638 -0.993904 0.107185 -0.0258063
-0.135483 -0.190058 -0.137957 -0.294548 -0.341522 -0.892527
0.0344791 0.189034 -0.0678446 -0.32292 -0.144742 -0.935293
0.0172834 0.187946 0.192297 -0.149485 -0.948574 -0.279036
-0.100185 -0.032803 -0.126957 -0.0335688 0.396656 -0.917353
0.0456608 -0.142067 0.0430663 0.968341 0.0748117 -0.238158
0.0972782 0.184682 0.0880955 0.761718 -0.0343865 0.646995
0.0632494 0.213694 -0.118616 0.402065 -0.885292 0.233669
-0.0121518 0.310885 -0.262467 -0.696147 0.489577 0.525066
0.098608 0.277521 0.0682101 0.970275 0.144961 0.193787
-0.0480845 0.474078 0.0480981 -0.663642 0.63582 0.394097
0.00398618 0.336028 0.116866 -0.690607 0.712413 0.124614
0.00566347 0.400097 0.00340129 0.140367 -0.362456 -0.92137
-0.117472 -0.231521 -0.11789 -0.846036 -0.24012 0.475988
0.0901461 0.323215 -0.0594432 0.864038 0.494691 -0.0933694
0.0662111 0.131493 -0.0653665 0.495632 0.221993 -0.839684
0.021061 0.117833 -0.0812022 -0.067968 0.327 -0.942577
0.0812007 -0.00357703 0.0254701 0.648619 -0.760621 -0.0273675
-0.0277911 0.291301 -0.288095 -0.872729 -0.244657 0.422478
-0.0449868 0.146604 0.0739218 -0.944643 -0.034405 0.326292
0.0150168 0.219013 -0.0765482 -0.561887 -0.418136 -0.713754
0.0573866 -0.384197 0.0908758 0.0606176 -0.0509531 0.99686
0.005739 0.296137 0.198946 -0.589997 0.659827 0.465329
-0.0488098 -0.403297 -0.161046 -0.134383 -0.564911 -0.814136
0.0031098 0.413394 -0.00268823 0.146356 -0.351219 -0.924784
0.0163163 0.158934 0.134757 -0.157551 -0.187274 0.969591
-0.139835 -0.158386 -0.129858 -0.604932 -0.598667 -0.525028
-0.0174669 -0.461079 0.0669106 0.497431 -0.734307 0.461905
0.0672386 -0.322546 0.0811447 0.623373 0.0737637 0.778437
-0.0346059 -0.14521 0.027442 -0.856247 -0.145089 -0.495773
0.0339956 -0.338986 -0.11366 0.871972 -0.313315 -0.376162
-0.0536149 0.308467 0.338567 0.739991 0.596522 0.310765
0.00303421 -0.0429119 -0.0428821 0.487199 -0.828175 0.277061
0.0354462 -0.337052 -0.111121 0.929176 -0.358259 -0.0910113
0.049106 -0.167694 0.0790896 0.749089 0.270383 0.60478
-0.0924488 -0.254368 -0.137957 -0.584596 -0.156026 -0.796181
0.111724 0.0819912 0.0443053 0.982802 -0.0483939 0.178207
0.0477159 -0.484289 0.0957716 0.0943872 -0.866938 0.489397
0.0193082 0.438538 -0.00506057 0.363448 -0.0361278 -0.930914
0.0404024 0.197858 -0.140133 -0.403585 -0.902482 0.150481
0.00466615 -0.0391948 -0.0391045 0.442603 -0.846498 0.295879
-0.0172629 -0.467365 0.101876 0.160563 -0.641854 -0.749829
0.0254733 -0.403297 0.0699629 -0.96206 0.00368636 0.272814
-0.0674259 -0.115593 -0.106044 0.797808 -0.575618 -0.179349
0.0381661 0.246091 -0.258599 -0.130685 -0.705065 -0.696997
-0.0307527 -0.286281 -0.0836199 -0.354393 -0.54341 0.760994
-0.029253 0.33071 0.0530392 -0.580124 -0.749402 0.319143
0.00794513 0.323456 -0.05491 -0.758917 0.511793 -0.402633
0.0353253 0.277279 -0.206861 -0.422599 0.672123 0.607998
-0.0157405 -0.0504067 0.10097 -0.476056 -0.154146 0.8658
0.0304899 0.22131 -0.102417 -0.323893 -0.945973 0.0150814
-0.0314705 0.23497 0.250201 -0.631749 0.738893 -0.234373
-0.0432642 0.236662 0.327929 -0.125935 -0.557527 0.820551
-0.0498675 0.108102 -0.0352664 -0.835558 0.287779 -0.468003
-0.0103839 -0.263071 0.0334787 -0.965316 -0.257431 -0.043523
0.120065 0.214661 -0.00157006 0.991438 -0.098178 -0.086097
0.107614 0.0529791 -0.00519657 0.969026 -0.188103 -0.160021
0.0164976 0.189638 0.18722 -0.343811 -0.887981 -0.305426
-0.0604751 0.238596 0.276191 -0.760363 0.00688167 -0.649461
0.0572657 -0.30393 0.0180974 0.457963 0.0804075 -0.885327
-0.0919653 -0.253401 -0.107011 -0.598649 -0.556582 0.576052
0.0226627 0.237145 0.302301 0.673631 0.074763 0.735277
-0.00613784 0.218892 -0.0511626 -0.671027 0.134207 -0.729185
-0.00344815 -0.195014 0.0140882 -0.536118 -0.208414 -0.818011
0.0498918 -0.0906912 0.0518001 0.999766 -0.0183771 -0.0114079
0.0813216 0.322006 -0.0969171 0.564103 0.754692 -0.335006
-0.0276287 0.334094 0.0657924 -0.65157 -0.43666 0.620309
0.00829266 0.163648 0.136268 -0.325543 -0.218084 0.920033
-0.0139197 -0.113357 0.0864031 -0.591422 -0.156204 0.791088
-0.0876135 0.314511 0.329379 -0.229116 0.962437 -0.145673
-0.0660357 -0.294501 -0.118616 -0.649157 -0.682285 0.336278
-0.0445033 -0.27516 -0.151859 -0.0233722 -0.340521 -0.939946
0.0277399 -0.0269553 -0.0474757 0.489787 -0.870726 0.0441068
-0.0498675 -0.042368 -0.0338762 -0.344333 -0.361934 0.866278
0.0755192 0.275103 -0.226807 0.754698 0.52225 -0.397096
0.100603 0.278488 -0.075702 0.992168 -0.117 -0.043738
0.0561777 -0.0283605 0.0233547 0.403895 -0.803408 -0.437497
-0.0458481 0.00523004 0.0600202 -0.940816 0.189452 0.281023
-0.0331326 -0.395077 -0.14243 0.562294 -0.824855 -0.0586474
0.042397 -0.10284 0.0670013 0.988024 -0.0655866 0.139669
0.0285558 -0.298128 0.0789083 -0.326128 0.00321745 0.94532
0.0980035 0.270268 -0.162134 0.830666 0.551008 -0.0798982
-0.0463921 0.114448 0.055064 -0.958158 -0.0110638 0.286025
-0.0181318 0.240893 0.222156 -0.675652 0.627542 0.386892
0.0298553 -0.337778 0.0260028 -0.467796 -0.198338 -0.861295
-0.0919653 -0.015222 -0.0639158 -0.711227 0.346285 0.611754
0.0359298 0.468033 0.0231922 0.795961 0.560521 -0.228609
0.0520677 -0.00400531 0.0897878 0.56404 -0.491499 0.663542
-0.0246236 -0.136506 0.0131589 -0.657211 -0.112737 -0.745227
0.0249897 -0.0937738 0.00819886 0.484142 -0.025721 -0.874611
-0.0343037 -0.348657 -0.125264 -0.966638 0.187364 0.174658
-0.0107239 -0.0732235 -0.00126785 -0.16276 -0.120222 -0.979314
-0.0256454 -0.109489 0.0116214 -0.612802 -0.0797458 -0.786202
0.08658 0.226629 -0.210367 0.532398 -0.696658 -0.480854
-0.109796 -0.110214 -0.153672 0.170491 0.0948412 -0.980784
-0.0505475 0.168242 0.0195808 -0.987134 0.157132 0.0295969
0.103866 0.0767328 0.06546 0.878791 -0.0323249 0.476111
-0.0926906 0.00551713 -0.0764878 -0.798968 0.361894 0.480294
0.102658 0.269059 -0.144848 0.883361 0.451708 -0.125032
0.0435454 -0.111181 0.0593554 0.998186 -0.00237189 0.0601645
-0.0197467 -0.375252 -0.104775 -0.118801 -0.702417 0.701781
0.0243551 -0.164189 0.0917824 0.338423 0.0668267 0.938618
-0.037001 -0.081625 -0.0612564 0.461604 -0.744748 0.481946
-0.0525723 -0.177486 -0.135902 0.663169 0.27595 -0.695743
0.0909923 -0.429891 0.048234 0.929873 0.14875 -0.336465
-0.0390484 -0.0197778 -0.0107421 -0.838177 -0.541375 0.0661283
0.00921445 0.201001 0.187462 -0.702227 -0.607533 -0.371189
-0.0192707 0.254069 0.139652 -0.970325 0.111621 0.2145
-0.0787285 -0.16443 -0.147265 0.312524 0.281462 -0.907253
0.0649418 -0.309249 0.0220249 0.56213 0.124793 -0.81758
0.00672122 -0.369691 0.0367954 -0.976312 -0.0414651 -0.212358
0.0260172 0.341589 -0.056965 -0.545217 0.775001 -0.319551
-0.108285 -0.105076 -0.0655478 -0.125107 -0.148218 0.98101
-0.140258 -0.14654 -0.150892 -0.542389 -0.469532 -0.696673
-0.00855547 0.276312 -0.240467 -0.939258 -0.104827 0.326813
-0.028728 0.121702 0.0985519 -0.759231 -0.0892871 0.644668
0.0877284 0.328534 -0.0349037 0.876165 0.469627 -0.108562
0.0640352 -0.0149198 0.00644605 0.509129 -0.768673 -0.387208
-0.0122953 -0.266214 -0.0824111 0.362257 0.103066 0.926363
-0.0380663 0.227717 0.00139159 -0.973269 0.143937 -0.178968
-0.087553 -0.240708 -0.137957 -0.502134 -0.153868 -0.850991
0.0530348 0.258421 -0.262467 0.633271 -0.366766 -0.681506
0.0413695 0.202452 0.183956 0.592882 -0.795528 0.125005
-0.0109581 -0.187519 0.0155822 -0.557457 -0.22443 -0.799296
0.0241134 -0.162375 0.0917824 0.328003 -0.0361173 0.943986
-0.0196806 0.283565 0.148054 -0.975539 0.189856 0.11081
-0.0115474 0.202935 0.294807 -0.0570218 -0.870717 0.488468
-0.054582 0.406141 0.0141297 -0.696414 -0.122176 -0.707163
0.0575075 -0.0236461 0.0753725 0.839343 -0.243177 0.486177
0.00188583 0.341831 0.0955298 -0.680284 0.505071 0.531147
0.0354764 -0.023495 0.0987332 0.511141 -0.19689 0.836642
0.0767884 0.229409 0.106832 0.826439 -0.108508 0.552472
-0.0375374 -0.0501952 -0.0332718 -0.351675 -0.501004 0.790772
-0.116263 -0.0544563 -0.0665148 -0.592898 0.314863 0.74117
0.0338445 0.070749 0.126295 0.0754313 -0.182051 0.980392
-0.046513 -0.400637 -0.121033 -0.0592936 -0.604846 0.794132
0.0203962 -0.302238 -0.0776966 0.397065 0.440806 0.805002
0.017918 -0.068086 0.00395282 0.371336 -0.0559782 -0.926809
0.00152321 0.334336 -0.00354953 -0.795505 0.462848 -0.39108
0.108339 0.200518 0.0365234 0.985183 0.0314499 0.168601
0.0346907 0.247783 -0.256907 -0.154105 -0.709002 -0.688162
-0.0357166 0.117531 -0.0442722 -0.648279 0.344966 -0.678773
-0.0164054 0.225662 -0.0411293 -0.75363 0.0848304 -0.651802
-0.0624999 0.0669412 0.00849351 -0.707915 -0.704595 -0.0490114
0.0567217 -0.393142 0.00980813 0.169729 -0.244445 -0.954693
-0.0770361 -0.0155318 -0.118011 -0.129702 0.265815 -0.955259
0.0323334 -0.339712 -0.115715 0.832286 -0.0194769 -0.554004
-0.0661264 0.0364483 -0.0550309 -0.865958 0.286542 0.409891
0.048139 0.205958 0.158571 0.8356 -0.522598 0.169305
-0.135665 0.272685 0.362743 0.155492 -0.987785 -0.0101993
0.107251 0.250443 -0.0212439 0.87052 0.056553 -0.488873
-0.0217096 -0.334876 -0.0927466 -0.648822 -0.0256638 0.760507
0.0702003 -0.307798 0.0274874 0.687077 0.155783 -0.709688
0.0171928 0.300247 0.202693 -0.21007 0.751862 0.624959
0.0836184 0.313786 -0.109429 0.650686 0.658006 -0.378993
-0.16099 -0.101752 -0.128286 -0.934747 0.149037 -0.322547
-0.0188325 -0.0216817 0.101876 -0.524344 -0.0117399 0.851425
0.0504962 -0.19175 0.0764 0.882139 -0.0101277 0.47088
0.02913 0.192902 0.251651 0.549447 -0.822219 0.148543
0.0404024 0.209705 -0.114989 -0.39922 -0.88262 0.248203
0.0127503 -0.340195 0.0310988 -0.578674 0.0116155 -0.815476
-0.139533 -0.140495 -0.0894223 -0.606478 -0.290365 0.740184
-0.048432 0.00304658 0.0456199 -0.983117 0.0745161 0.167117
0.0341467 -0.120912 0.0142884 0.629944 -0.0168502 -0.776458
0.0718927 0.351743 0.0536134 0.816283 0.55087 0.173852
0.0705025 0.237025 0.115415 0.867738 -0.144874 0.475439
0.0734037 -0.434001 0.0832601 0.469099 0.414279 0.779948
-0.00316106 -0.366064 -0.155364 0.619857 0.334785 -0.709716
-0.099037 -0.177607 -0.0794494 -0.332066 -0.189603 0.924004
-0.0532825 0.388975 0.0582976 -0.739125 -0.252417 0.624484
-0.109312 -0.194289 -0.136023 -0.664776 -0.186647 -0.723351
-0.00708975 0.463198 0.0815677 -0.22788 0.380885 0.896101
0.0742498 0.339413 0.0778506 0.810939 0.55235 0.1931
0.10846 0.0458168 0.047403 0.963925 -0.161837 0.211321
0.0970365 0.169088 -0.0310052 0.749768 0.0481267 -0.659949
0.0755192 0.279938 0.118981 0.909148 0.0277906 0.415545
-0.134516 0.278004 0.336632 -0.668901 -0.49183 -0.557382
-0.0032064 0.478671 0.00323507 0.0483435 0.663599 -0.746524
0.0237507 -0.187761 0.0916011 -0.143433 0.0488915 0.988452
0.015168 0.254795 0.25564 -0.282219 0.951614 -0.121585
0.0400398 0.260839 0.24875 0.383383 0.794755 0.470512
0.0514029 0.126416 -0.0700809 0.355598 0.2186 -0.908716
0.0363831 0.123998 0.135482 0.0724913 -0.123932 0.989639
0.0223605 0.267366 -0.132155 -0.919427 0.173578 -0.35288
-0.004521 0.261322 0.218408 -0.746498 0.433007 0.505219
0.0250804 0.309434 -0.245302 0.349105 0.863099 0.364946
0.0405838 -0.0901473 0.0885186 0.752971 -0.120437 0.646939
0.0602878 0.333611 0.124542 0.765552 0.493507 0.412772
0.00900288 0.445791 -0.00805245 0.206037 0.0601926 -0.976691
-0.052119 0.159417 0.0296406 -0.991079 0.0771046 0.108711
0.115713 0.273411 0.0113721 0.972358 0.203124 -0.115151
0.0466279 -0.0817458 0.0804798 0.978897 -0.1869 0.082644
-0.018536 0.266883 0.181539 -0.899616 0.333773 0.281577
-0.0549144 -0.407407 -0.154397 -0.209552 -0.956805 -0.201523
0.0905088 0.122669 -0.0515253 0.686058 0.177963 -0.705445
-0.0487947 0.297104 0.339775 0.797442 0.180623 0.575726
-0.0081475 -0.210487 0.0219248 -0.556066 -0.10911 -0.823945
0.0593208 -0.483563 0.0499566 -0.525954 -0.688856 -0.498848
-0.0238964 0.247783 0.327929 0.392346 -0.0575172 0.918018
0.0370479 -0.159353 0.083925 0.459986 0.0597211 0.885915
-0.00536719 -0.0988509 -0.000255446 -0.260639 -0.0845648 -0.961726
0.0132036 -0.134935 0.0986124 -0.0898552 -0.088245 0.992038
0.00174986 -0.32714 0.0369465 -0.875451 -0.191566 -0.443721
0.0255337 -0.140133 0.0118594 0.4073 -0.108407 -0.906838
0.0202753 0.477462 0.0620148 0.428792 0.789471 0.439172
-0.00844214 0.178275 0.228321 -0.170784 -0.942798 -0.286296
0.0336632 -0.288215 0.0812655 -0.188041 -0.0582827 0.98043
-0.0409221 0.0141301 0.0686936 -0.953027 -0.000589292 0.302885
-0.11445 -0.191992 -0.131792 -0.403707 -0.394266 -0.825576
-0.0155289 0.261322 0.321885 0.543054 0.24388 0.803501
0.0509193 0.215991 0.169329 0.872309 -0.469492 0.13658
0.0787226 0.0871288 0.0970409 0.666924 -0.140052 0.731845
0.0999377 0.109069 -0.0382583 0.887899 0.0949492 -0.450133
-0.0964984 -0.0176623 -0.0662126 -0.715137 0.340887 0.610225
0.0619198 0.0969808 0.113965 0.630509 -0.199644 0.750067
-0.0567881 0.0796944 -0.029464 -0.889338 -0.176036 -0.422007
0.0451773 -0.139528 0.0378985 0.964279 -0.023318 -0.263862
0.0572657 -0.0476566 0.0733779 0.922388 -0.0217863 0.385649
0.0480785 -0.0484726 0.0542178 0.854486 -0.36855 -0.366094
0.0703816 0.299763 -0.141825 0.181915 0.820104 -0.542528
0.0191571 -0.356394 -0.129495 0.772875 -0.443772 -0.453575
-0.00858572 0.448934 0.0835019 -0.140622 0.145783 0.979271
-0.0427958 0.0830792 0.0704162 -0.881463 0.0685767 0.467247
0.069475 0.137054 0.110278 0.671994 -0.0342187 0.739766
0.0794479 0.222035 -0.207103 0.46146 -0.774924 -0.431911
0.0561173 -0.419495 0.0912989 0.0499301 0.266254 0.962609
0.0343884 0.40324 0.0164341 0.764954 -0.0164674 -0.643875
0.00771847 -0.0511623 0.10919 -0.0678158 -0.170528 0.983016
-0.04337 0.0672434 0.0665177 -0.877331 0.0615478 0.475922
-0.0126957 -0.300545 -0.0908125 -0.361997 -0.0403755 0.931304
-0.0365401 -0.310216 -0.155002 0.0217704 0.413015 -0.910464
-0.0177578 -0.484289 0.0889416 -0.00634883 -0.897832 0.440292
0.0245062 -0.0444834 0.00490478 0.512298 -0.251359 -0.8212
0.0346 -0.38323 0.0169856 -0.291265 0.13002 -0.947766
0.102053 0.0583282 -0.0313075 0.916703 -0.173432 -0.359967
-0.0232915 -0.224268 0.0322623 -0.814684 -0.082974 -0.573939
0.0180692 0.257454 0.249959 -0.378531 0.852558 0.360361
-0.0279082 -0.301512 -0.146419 -0.387269 0.274274 -0.880225
-0.0222935 -0.160078 0.0161545 -0.605721 -0.205112 -0.768786
0.0492874 0.315236 -0.110396 -0.169138 0.758545 -0.629286
-0.0677885 -0.102719 -0.0695974 0.306047 -0.707948 0.63651
0.00829266 -0.306831 -0.116682 0.718903 -0.292239 -0.630694
-0.126659 -0.219432 -0.125264 -0.308305 -0.283475 -0.90807
-0.0754042 0.278729 0.355974 0.192367 -0.52954 0.826185
0.0530952 0.283323 0.190242 0.894614 0.354432 0.272111
0.10979 0.136933 0.00818375 0.994097 -0.00469955 -0.108395
0.050194 0.0654301 -0.0813836 0.460372 -0.0636351 -0.885442
0.0487434 -0.405714 0.0327307 -0.106138 -0.816186 -0.567957
0.0569635 -0.36002 0.0227616 -0.0702473 -0.160064 -0.984604
-0.0104519 0.296137 -0.24772 -0.90397 0.204768 0.375378
0.0805359 0.301214 -0.135056 0.30428 0.787339 -0.5362
0.0607713 -0.184739 0.0550338 0.987569 0.125607 0.0945005
-0.0267183 -0.229345 -0.0911147 0.390461 0.512953 0.764473
0.104713 0.0490504 -0.01798 0.95394 -0.189012 -0.232965
0.0462653 -0.11922 0.0797847 0.960023 -0.0146066 0.279541
-0.00143849 -0.136144 0.0936561 -0.473256 -0.227495 0.851043
0.0387101 0.0735293 -0.0894828 0.422669 -0.014935 -0.906161
-0.0190724 0.248509 0.206441 -0.794286 0.511051 0.328538
0.0390425 0.198221 0.243552 0.779348 -0.622389 0.072449
0.00365374 -0.368724 -0.123088 0.68319 -0.724586 0.0907002
-0.117532 0.289367 0.372656 -0.0671493 -0.232493 0.970277
0.0711673 -0.235268 0.0578141 0.941687 0.333965 -0.0411552
-0.0696622 -0.107192 -0.114022 0.784747 -0.450103 -0.426121
0.0768489 -0.290391 0.0686936 0.927128 0.0200373 0.374208
-0.0100665 0.21587 0.142856 -0.76445 -0.554646 0.328609
0.0254129 -0.291358 -0.0974611 0.74002 0.671665 -0.0351768
0.0903274 0.245366 -0.0977633 0.782768 -0.604572 0.147537
0.0587163 0.237266 0.175978 0.972868 -0.224345 0.0565408
-0.106894 -0.0455109 -0.0638554 -0.623614 0.269399 0.733846
-0.0233638 0.0209903 -0.108462 0.353123 0.250771 -0.901343
-0.048704 -0.0260789 0.0474332 -0.997211 -0.0300202 0.0683351
0.0415508 0.32805 0.161835 0.569847 0.648817 0.504292
-0.0845914 -0.211696 -0.084043 -0.377642 -0.138629 0.915515
-0.0406955 0.284532 -0.295831 -0.0877649 -0.970702 0.223684
0.0575075 0.17622 -0.0709875 0.40454 -0.154352 -0.901401
0.114625 0.22687 0.0167637 0.954457 -0.0635052 0.291512
0.0257453 0.294928 -0.124539 -0.672049 0.483735 -0.56067
0.0610131 0.265916 0.175736 0.980163 0.0671326 0.186476
-0.0688463 0.233277 0.311489 -0.83534 -0.545103 0.0712051
0.0523699 0.268575 0.211397 0.883251 0.358665 0.302039
-0.0168096 -0.342371 -0.0896641 -0.411649 -0.217636 0.884974
-0.0155516 0.0656114 -0.101873 -0.179093 0.240161 -0.954069
-0.0350744 0.330226 0.0302148 -0.0801649 -0.992146 -0.0960188
-0.0227398 0.236541 0.221551 -0.770988 0.555529 0.311392
-0.0324376 -0.326656 -0.109308 -0.899825 -0.0235331 0.435616
0.0925638 0.00699795 0.0644929 0.707239 -0.558684 0.433226
0.104229 0.236662 0.0453631 0.963466 0.13058 0.233841
0.0197615 0.263256 -0.282051 0.027135 -0.836997 -0.546534
-0.0179542 0.301697 -0.32847 0.48841 -0.330486 -0.80761
0.0135662 -0.312634 -0.120913 0.765509 -0.123516 -0.631459
-0.0664588 0.226508 0.30617 -0.730133 -0.672476 0.121169
-0.0328833 0.121702 0.093233 -0.831391 -0.103573 0.54595
0.0657276 0.0169255 -0.0627675 0.642814 -0.441778 -0.625798
-0.00883502 0.324424 0.121399 -0.840886 0.536958 0.0677246
-0.0117287 -0.345031 -0.0877904 -0.385431 -0.251056 0.887927
0.044996 0.408559 0.0386842 0.964496 -0.264038 -0.00554378
0.0130223 0.225057 -0.20674 -0.667762 -0.678593 -0.30595
-0.0300199 0.0144625 -0.118011 0.289464 0.261961 -0.920645
-0.0326491 -0.347207 -0.129858 -0.962038 0.213427 -0.170095
0.0724971 -0.300545 0.0779715 0.732041 0.180613 0.656883
-0.0386706 0.062408 -0.0953456 -0.41177 0.559065 -0.719647
-0.00133271 -0.287732 0.0443809 -0.985581 -0.167147 0.0262913
-0.0998227 -0.216773 -0.142672 -0.568853 -0.246097 -0.784756
0.0778764 -0.365823 0.0336524 0.643343 0.245512 -0.725144
-0.0458028 0.222639 0.0616824 -0.998805 0.0206486 0.0442922
-0.0463317 0.0705677 0.0598691 -0.906458 0.0152067 0.422023
0.0387705 -0.365097 0.0725015 -0.567877 0.170321 0.805299
0.0717113 0.346666 -0.0613169 0.605592 0.777266 -0.170632
-0.00827593 -0.0413707 0.106047 -0.346322 -0.128889 0.92922
0.105801 0.0346955 0.0171981 0.977069 -0.194061 -0.0876159
-0.0121291 0.0618036 -0.101511 -0.184005 0.191491 -0.964092
-0.0531011 0.198704 0.267971 -0.524874 -0.849205 -0.0579471
0.114988 0.192056 0.00167869 0.983091 -0.092709 -0.157918
-0.0447451 0.0459376 0.0112134 -0.974593 -0.0784682 0.209789
-0.0885201 0.291301 0.368062 0.401771 -0.386677 0.830097
0.00380487 0.284532 -0.228136 -0.552257 0.305205 0.775797
0.0717718 0.132581 -0.062707 0.493119 0.212174 -0.843692
0.0493478 0.270268 0.21599 0.826102 0.414124 0.382173
-0.157243 -0.0833778 -0.124539 -0.914192 0.323563 -0.244048
-0.00494406 0.268092 -0.24361 -0.906467 -0.404117 0.122502
0.111482 0.158208 0.0300864 0.998917 -0.0077479 0.0458762
-0.0147055 -0.0618 -0.0917191 0.780937 -0.459802 -0.422753
-0.00228468 -0.0261393 -0.0146859 0.63089 -0.723526 -0.280157
0.0359599 -0.331008 -0.105923 0.975596 -0.204508 -0.0799327
0.0122365 0.061441 -0.103747 0.188826 0.212817 -0.958673
-0.0522096 0.0161398 -0.016469 -0.977942 -0.0542935 0.201697
0.0395563 0.294686 -0.128891 -0.337943 0.575136 -0.744992
0.000525891 -0.028421 -0.0986095 0.725362 -0.209946 -0.655571
0.00891219 0.4881 0.0203307 0.255106 0.932271 -0.256498
0.0992728 0.245849 -0.2013 0.91745 -0.116846 -0.380306
0.0288278 0.135361 0.133608 -0.0304123 -0.123048 0.991935
0.0228139 0.294444 -0.287853 0.668061 -0.121905 -0.734052
0.105559 0.0870079 -0.0239336 0.955385 0.0117514 -0.295129
-0.0141313 -0.30248 -0.150771 0.226496 0.221422 -0.948511
0.100059 0.117108 0.076128 0.869704 -0.0668831 0.48902
-0.0600822 0.418471 0.0482643 -0.931104 0.0275802 0.363709
0.01819 0.186133 0.200638 -0.139917 -0.941625 -0.306212
0.0352649 0.358271 0.107981 0.056185 0.923795 0.378743
0.0512215 0.244519 -0.257149 0.407137 -0.533423 -0.741417
0.00536128 0.249234 0.257091 -0.40569 0.867946 -0.286506
-0.130588 -0.0954661 -0.14932 -0.117447 0.233363 -0.965271
-0.0479787 0.177066 0.0540667 -0.987041 0.10706 0.119534
-0.0103385 0.0962555 0.109129 -0.625254 -0.112342 0.772293
-0.0573321 0.0663367 0.00302352 -0.641312 -0.751795 -0.153372
0.117405 0.202694 -0.000920307 0.983662 -0.122801 -0.131642
-0.0451228 0.215749 0.0434591 -0.998182 0.0490354 -0.0350354
0.052793 0.0622872 -0.0793285 0.462654 -0.0688543 -0.883861
-0.041587 0.292027 -0.287369 -0.725884 -0.00287423 0.687811
-0.0716568 0.255278 0.337358 -0.167517 -0.72687 0.666032
-0.0492026 -0.307315 -0.127561 -0.300665 -0.942236 0.147621
-0.0610795 0.311852 0.349446 0.504259 0.625771 0.595091
0.0930473 0.00238547 0.0580861 0.680728 -0.699706 0.216842
0.101811 0.152527 -0.0343296 0.77724 0.0783732 -0.624304
-0.0229997 -0.162738 0.0171735 -0.738109 -0.217086 -0.638803
-0.0751322 -0.245664 -0.148837 -0.37927 -0.05458 -0.923675
0.100844 -0.429408 0.0632236 0.946489 0.264069 0.185544
0.00957707 0.245849 -0.0843452 -0.819169 -0.125479 -0.559658
-0.0419194 -0.0420657 -0.028648 -0.398129 -0.610146 0.684992
0.0602274 0.0479322 0.102481 0.534782 -0.111597 0.837588
0.103383 0.255278 -0.15476 0.996293 -0.0758322 0.0406072
0.0407046 -0.0193849 -0.0241451 0.384064 -0.922674 0.0341667
-0.0454402 0.0665181 -0.0379561 -0.983651 -0.105355 -0.146055
-0.0553073 -0.105137 -0.0798725 0.513582 -0.791475 0.331363
0.0677221 0.346908 -0.0735261 0.539463 0.776357 -0.325959
0.0217561 -0.138319 0.0925682 0.369634 -0.050005 0.927831
-0.045833 0.382931 0.0157144 -0.474996 -0.360748 -0.802646
-0.0708711 -0.0660309 -0.0486845 -0.123732 -0.471532 0.873125
0.0133849 -0.298611 -0.119341 0.87753 0.0153606 -0.479275
0.0249897 -0.20952 0.0959529 -0.0424221 0.0563231 0.997511
-0.0500186 0.00049856 0.00247955 -0.992751 -0.119876 0.00872541
0.0624033 -0.485981 0.0539458 -0.503496 -0.774367 -0.383207
-0.0380663 0.371326 0.0588718 -0.630728 -0.416364 0.654846
0.103141 0.028349 0.00275154 0.939248 -0.300823 -0.165286
0.0823491 -0.00117302 0.0267696 0.695679 -0.718162 0.016531
0.100179 -0.453584 0.0601411 0.994114 -0.0257254 -0.105237
0.0116321 0.239442 -0.225477 -0.825995 -0.562095 -0.0421962
-0.0156423 0.23775 0.231222 -0.524694 0.83319 0.174618
-0.0639505 -0.0759434 -0.0527341 0.0391488 -0.563367 0.825279
-0.0165225 -0.123934 0.00519943 -0.404965 -0.059123 -0.912419
-0.0877948 -0.251225 -0.10145 -0.656411 -0.468239 0.591504
-0.0863442 -0.159595 -0.15065 0.17006 0.21125 -0.962524
-0.0124011 0.28695 -0.319525 0.171789 -0.635841 -0.752459
-0.129802 -0.0692344 -0.0724986 -0.695852 0.224 0.68236
0.0221188 0.24875 -0.152705 -0.967363 0.230636 -0.10496
-0.00712755 0.258905 0.21732 -0.738667 0.465696 0.487339
-0.113362 0.314269 0.351864 -0.231994 0.928736 0.289185
-0.0205796 0.440714 0.0772159 -0.331459 0.0136874 0.94337
0.0724366 0.353677 -0.0164388 0.528453 0.847915 -0.042161
-0.0280518 -0.113297 0.0150118 -0.750804 -0.109141 -0.651446
-0.0084573 0.263498 0.21176 -0.778503 0.413388 0.472275
-0.0171496 -0.0105 0.103327 -0.515888 0.0559487 0.854827
-0.0443824 0.00294834 0.0680288 -0.935804 0.154648 0.316788
-0.0556699 0.406866 0.0157295 -0.738416 -0.0695538 -0.670749
-0.0569997 0.107014 -0.0191284 -0.953123 0.130521 -0.272984
-0.0253791 -0.341404 -0.0951643 -0.680922 -0.0806248 0.727905
-0.00172558 -0.0218328 -0.100906 0.679335 -0.217615 -0.700819
-0.0483564 -0.226323 -0.14654 0.315561 0.262845 -0.911775
0.101449 0.259146 -0.182926 0.951355 0.260716 -0.164165
-0.0395471 0.099882 0.0720179 -0.901987 0.0233923 0.431129
0.0120854 0.29106 -0.310579 0.627294 -0.377173 -0.681354
0.0529139 0.228684 -0.233939 0.107941 -0.871043 -0.4792
0.00320043 0.45933 -0.00832444 0.0979392 0.291709 -0.95148
0.0463257 0.447 0.0498055 0.939157 0.238587 0.247104
0.0265008 -0.413693 0.0823535 -0.821079 -0.116885 0.558719
0.010393 0.249959 -0.256181 -0.456332 -0.767182 -0.45077
0.0023694 -0.313359 -0.123935 0.807591 -0.152756 -0.569617
-0.0117362 -0.143276 0.0821117 -0.566061 -0.135447 0.81316
-0.0452588 0.196045 0.0644325 -0.983066 0.0180928 0.182357
0.014352 0.316445 -0.075702 -0.851869 0.383605 -0.356604
0.017223 0.265191 -0.207707 -0.707548 0.294528 0.642362
0.0375315 0.393086 0.0226218 0.864374 0.215414 -0.454372
0.0469906 0.286224 0.201001 0.730539 0.496105 0.469247
0.0527325 -0.0471731 0.0746774 0.894275 -0.00124804 0.447516
-0.0482356 -0.22185 -0.0894828 0.335993 0.194671 0.921527
0.0271052 0.00208706 0.106409 0.325658 -0.382077 0.864849
0.0341165 -0.483322 0.0809029 0.116023 -0.967966 0.222667
0.00644922 0.270268 -0.285194 0.0573168 -0.84031 -0.539068
0.00614697 0.268575 -0.274798 -0.344299 -0.844543 -0.410128
-0.0438837 -0.0692948 0.0492313 -0.991499 -0.118483 0.0537797
0.040342 0.462956 0.026407 0.849812 0.49696 -0.175644
0.10169 0.230739 0.0766417 0.92796 0.108981 0.35639
-0.0198732 0.305808 0.0133062 -0.922329 0.372061 -0.104301
0.08247 0.225057 -0.143155 0.679132 -0.705605 0.202239
0.0868217 0.232552 -0.128528 0.735167 -0.653778 0.179178
0.0422761 -0.0879109 0.0230449 0.816372 0.0107235 -0.577426
0.0585954 -0.47486 0.0438973 -0.396121 -0.523957 -0.754027
0.0333308 -0.314568 0.01178 -0.243896 -0.160997 -0.956345
0.0268634 -0.283622 0.0798452 -0.228765 -0.190142 0.954732
0.0707442 0.327325 0.111607 0.815361 0.419413 0.399098
-0.0495502 -0.256302 -0.154156 0.0150457 0.116645 -0.99306
0.017918 -0.348174 -0.129858 0.754219 -0.269339 -0.598841
-0.0630741 0.383173 0.0403464 -0.941214 -0.33539 0.0403737
-0.135302 -0.0776358 -0.143155 -0.283739 0.372965 -0.883396
-0.0445335 -0.0842844 -0.0596849 0.233331 -0.688134 0.687043
0.0155004 -0.114022 0.0961947 0.053486 -0.0706283 0.996068
0.00879132 -0.137111 0.098975 -0.152608 -0.020609 0.988072
-0.0731981 0.290093 0.307379 -0.288514 0.258081 -0.922038
0.102899 0.267608 -0.144727 0.917619 0.395854 -0.0356984
0.0456004 -0.138319 0.0488989 0.982862 0.154245 -0.100946
0.00217293 0.356095 0.0867053 -0.422853 0.277615 0.862627
-0.00199752 0.0243146 0.115476 -0.4002 -0.0900445 0.911993
-0.0864046 -0.179299 -0.151617 0.0831174 -0.000932372 -0.996539
0.0483808 0.0995194 -0.0824111 0.333562 0.285612 -0.898422
0.0306411 -0.33536 0.0745565 -0.590438 -0.526046 0.612093
-0.0908773 0.275103 0.353556 0.220836 -0.683587 0.695658
0.0777555 0.145274 -0.0532176 0.543593 0.19174 -0.817155
0.0660298 0.257454 0.146845 0.966509 -0.071042 0.246602
-0.0300955 -0.017549 0.0942001 -0.610926 0.0325103 0.79102
0.0100001 0.322973 -0.285435 0.587338 0.785728 -0.194076
0.0391634 -0.333184 0.0852547 -0.489446 -0.510426 0.707041
-0.00888037 0.284048 -0.243126 -0.874759 0.0760859 0.478548
0.0683266 0.357062 0.0562426 0.793035 0.573194 0.206262
0.0226023 -0.484289 0.0897878 0.00412672 -0.931548 0.363594
0.0648814 0.360689 0.0522837 0.786931 0.595746 0.160705
0.0290696 -0.489366 0.101574 0.0180899 -0.932382 0.361021
-0.0220099 -0.392417 -0.1712 -0.0527526 0.524238 -0.849936
-0.0437931 -0.400637 -0.135539 0.292678 -0.877087 0.380864
0.0433036 0.203056 0.176099 0.790959 -0.59702 0.133982
-0.121884 -0.116802 -0.06996 -0.269778 -0.196996 0.942556
-0.0304128 0.123877 -0.0454811 -0.644528 0.322427 -0.693271
-0.119104 -0.188728 -0.105016 -0.594207 -0.66479 0.452738
-0.0106256 0.297829 -0.266577 -0.865705 0.328557 0.37763
-0.0705689 -0.100906 -0.0667566 0.281446 -0.729415 0.623492
-0.055821 0.420889 0.0195874 -0.909368 -0.0528487 -0.412623
0.0463862 -0.129132 0.0369465 0.960123 -0.0900799 -0.264667
-0.0498675 0.166187 0.0510446 -0.984791 0.0889663 0.149236
0.0803545 0.219738 -0.199608 0.462361 -0.842725 -0.275749
-0.132764 -0.0491677 -0.097582 -0.830746 0.526237 0.181482
-0.0555793 0.00537358 -0.0269556 -0.935162 -0.0696655 0.347303
-0.0407861 -0.0983673 0.0367048 -0.962742 -0.0639231 -0.262758
-0.0165603 0.398646 0.000741845 -0.0206641 -0.362072 -0.931921
0.0554524 0.289126 -0.241917 0.692325 0.619937 -0.369276
0.0865196 -0.446573 0.0869471 0.652027 0.0359776 0.757341
0.0173438 0.262048 -0.0980655 -0.968004 -0.042403 -0.247326
0.0619802 -0.259928 0.0302979 0.756989 0.152429 -0.6354
-0.0500488 -0.00533408 0.00551675 -0.976067 -0.191806 -0.102491
-0.124362 -0.192354 -0.125385 -0.742571 -0.653078 0.148581
0.0751565 -0.491058 0.0663364 -0.214056 -0.974461 -0.0678601
-0.0832617 -0.0869438 -0.142672 0.338804 0.102883 -0.935215
-0.104477 -0.148715 -0.0764273 0.0811097 -0.398384 0.913626
-0.0439291 0.259872 0.0653391 -0.981414 0.181998 -0.0608624
0.00737094 -0.294259 -0.136023 0.648971 -0.193483 -0.735799
-0.0463014 -0.0142096 0.0689052 -0.944009 0.0410567 0.327354
0.030218 0.190243 0.208496 0.363325 -0.91458 -0.177592
-0.0629229 -0.208432 -0.0838012 0.301369 0.0174294 0.953348
-0.00996831 0.0822934 -0.0920818 -0.195783 0.552817 -0.809976
-0.0499733 0.0278353 0.0131249 -0.95166 0.244257 0.186229
-0.0230375 -0.464222 0.0972826 0.149799 -0.752879 -0.640884
0.0373803 -0.427473 0.0398175 -0.772336 -0.466962 -0.430631
-0.025364 0.071293 -0.0977633 -0.280467 0.377588 -0.882477
-0.0353237 0.139834 -0.0390742 -0.658301 0.136228 -0.740325
-0.0360112 -0.18486 0.0465266 -0.948464 -0.294834 -0.116144
-0.00568453 -0.267907 0.0514677 -0.902374 -0.372248 0.217145
0.0421553 -0.227894 0.0214526 0.612248 0.035144 -0.789885
-0.113906 -0.159353 -0.14654 -0.0629079 -0.252494 -0.965551
-0.100669 0.268334 0.328654 -0.591206 -0.789228 -0.166116
-0.0489911 0.161472 -0.0188262 -0.882112 0.160937 -0.442693
0.017495 0.33071 0.170176 -0.100356 0.781424 0.615878
0.0228743 0.0903322 -0.0931093 0.194418 0.218848 -0.956194
0.0558151 -0.189937 0.0362363 0.864209 0.245127 -0.439381
-0.0172176 0.137779 0.11197 -0.758726 -0.1328 0.63773
-0.0295061 0.297587 0.0440484 -0.851581 0.472827 -0.226371
0.0771511 0.0394099 0.0905736 0.552166 -0.0948778 0.828318
0.0965529 0.259872 -0.0369588 0.933775 -0.124529 -0.335496
0.0697771 0.0365389 -0.0668171 0.645076 -0.285787 -0.708663
-0.0262272 0.489309 0.0361003 -0.283963 0.956913 0.0606887
-0.0322185 -0.314084 -0.142672 -0.868358 -0.243269 -0.432175
0.0172834 -0.11783 0.0950463 0.0626831 -0.0237152 0.997752
-0.0777917 -0.110577 -0.13566 0.843348 0.0561632 -0.534425
-0.0562139 0.0371736 -0.0261699 -0.944473 0.158019 0.288098
0.0247782 0.305566 -0.291238 0.753841 0.478976 -0.449785
0.0658485 -0.311667 0.0221685 0.532029 0.105476 -0.840131
-0.0397133 -0.304897 -0.120066 -0.749815 -0.646308 0.141646
-0.0438233 0.169451 0.0725015 -0.956156 0.0402033 0.290085
-0.0382325 -0.305623 -0.122726 -0.798622 -0.60183 -0.00167905
0.0374106 0.270026 -0.276732 0.451978 -0.473308 -0.756105
-0.0527536 0.0187388 0.00371861 -0.993102 0.0931552 0.0712138
-0.00563919 0.326358 0.101937 -0.808107 0.517571 0.281217
0.0533974 0.223365 0.240046 0.979847 -0.169225 0.106128
0.11946 0.250926 0.0058794 0.998383 0.0567122 0.00393483
-0.0556397 0.12968 0.0140428 -0.991844 0.101031 0.0777021
0.0189758 -0.143155 0.0092717 0.350815 -0.0804808 -0.93298
-0.0151097 0.265674 0.192297 -0.866221 0.374264 0.331041
-0.0554584 -0.065487 -0.133605 0.511514 -0.155313 -0.845122
-0.0277004 -0.208553 -0.105198 0.805138 0.420324 0.418426
0.0325147 -0.0651243 0.0127056 0.703499 0.00521411 -0.710677
0.0503754 -0.340437 0.0845294 -0.274081 -0.438316 0.856014
-0.0055485 0.275345 -0.283743 -0.465759 -0.858945 -0.212795
-0.119406 -0.134693 -0.073103 -0.216032 -0.305924 0.927222
0.00803582 -0.291116 0.0189393 -0.45935 -0.241347 -0.854839
-0.137176 -0.147265 -0.090329 -0.605182 -0.273267 0.747716
0.0458422 -0.298853 0.0861613 -0.205292 0.112841 0.972174
0.1003 0.266641 0.0523743 0.980993 0.122493 0.150492
0.0316988 -0.483322 0.0766115 0.104269 -0.990668 0.0877745
-0.0149132 0.289367 0.170176 -0.866262 0.381943 0.322041
0.0405233 -0.0376837 0.0261199 0.776541 -0.363512 -0.514629
-0.00888037 0.280905 -0.302843 -0.0398198 -0.87549 -0.481592
0.0136569 -0.312392 -0.11922 0.765509 -0.123516 -0.631459
0.00085833 0.491001 0.0279558 0.0535902 0.968309 -0.243939
-0.061019 0.299763 0.356216 0.514615 0.0998538 0.851587
0.0346 -0.383955 0.0847107 -0.378617 0.163313 0.911031
-0.1104 -0.157177 -0.0839221 -0.180424 -0.241765 0.953413
-0.0362757 0.417504 -7.41195e-05 -0.383926 -0.152444 -0.910693
-0.0557908 0.386074 0.0544293 -0.767443 -0.32843 0.550604
-0.0610795 -0.183651 -0.0857354 0.38177 0.151096 0.911823
0.00990951 -0.249291 0.0143073 -0.212405 0.0901409 -0.973015
0.0736455 0.231343 -0.0666962 0.803505 -0.442982 -0.397677
0.020517 0.256003 -0.258357 -0.301539 -0.792352 -0.530332
0.0684475 0.290818 -0.158507 0.177327 0.909913 -0.374986
0.0462048 -0.17664 0.0856173 0.612155 0.107909 0.78334
-0.0285731 -0.155727 0.0715344 -0.801737 -0.0202857 0.597332
0.0477763 0.322973 0.160142 0.663595 0.598489 0.448836
0.081382 0.329017 0.0778203 0.853453 0.483792 0.193813
-0.0382476 -0.0553327 -0.0380165 -0.215522 -0.504653 0.835988
0.0468697 -0.0757621 0.0804798 0.975525 -0.20471 0.0802852
-0.033382 -0.303205 -0.149199 -0.373903 0.256722 -0.89123
-0.0472685 0.215991 0.305444 -0.332785 -0.73875 0.586091
0.10846 0.0536138 0.00560742 0.979508 -0.167813 -0.111372
0.10435 0.200639 0.0699931 0.952693 0.0127165 0.303668
-0.123516 -0.15887 -0.144243 -0.0937292 -0.375932 -0.921895
0.0908714 0.24875 -0.0457833 0.919534 -0.209961 -0.332226
0.105801 0.268817 -0.0242055 0.925943 0.0557179 -0.37353
-0.0279158 0.114448 -0.0559375 -0.57486 0.465131 -0.673194
0.0277096 0.12557 -0.0801747 0.103925 0.325646 -0.939763
0.00521015 -0.309491 0.0250281 -0.509599 -0.42452 -0.748393
-0.04405 0.10236 -0.048201 -0.747725 0.39004 -0.537379
0.0434245 0.174286 0.141345 0.447111 -0.37048 0.814148
-0.0385649 0.0896673 0.0764906 -0.876165 0.0154749 0.481762
0.0440894 0.257454 0.246211 0.478398 0.762813 0.435031
0.104833 0.0381406 -0.00288467 0.962965 -0.223258 -0.15118
-0.1104 -0.192354 -0.135419 -0.585483 -0.281971 -0.760067
0.0702607 -0.0290859 0.0361155 0.78308 -0.615788 -0.0871251
-0.00624356 -0.32859 -0.0842848 -0.425533 -0.275158 0.862096
0.000556142 -0.257027 0.0161375 -0.552888 -0.141857 -0.821092
-0.0444731 0.297829 -0.291238 -0.624179 0.281797 0.728692
-0.067305 -0.192596 -0.147507 0.347204 0.161748 -0.923735
0.0590185 0.277037 0.175132 0.92377 0.278111 0.263256
0.0899043 -0.43255 0.0779715 0.626244 0.357939 0.692603
0.107614 0.251168 0.0332142 0.918803 0.0509441 0.391415
-0.0167832 0.349084 0.0119047 -0.70704 -0.0530279 -0.705183
0.057991 0.175857 -0.0703227 0.40454 -0.154352 -0.901401
0.00170452 -0.153913 0.00439102 -0.0813121 -0.135032 -0.987499
0.00313999 0.485924 0.0558799 0.199975 0.89739 0.393322
-0.0611702 -0.297161 -0.139045 -0.654048 -0.450904 -0.607377
0.0740081 -0.48308 0.0878537 0.282495 -0.453891 0.845092
-0.0148263 -0.383713 -0.128649 0.402103 -0.844053 0.354806
0.0546667 0.201847 -0.0735261 0.267154 -0.420778 -0.866934
-0.0330345 -0.281929 -0.079389 -0.222124 -0.553475 0.8027
-0.0690578 -0.290633 -0.115956 -0.669539 -0.692147 0.269537
0.109306 0.201727 0.0304188 0.984804 0.0139891 0.173104
0.0555733 0.274378 -0.185948 -0.430852 0.870601 0.23753
0.0520677 0.289851 0.184802 0.886945 0.353803 0.296905
-0.00367481 -0.269599 0.0515584 -0.908995 -0.354077 0.219903
-0.0222255 -0.143397 0.0127584 -0.547926 -0.127723 -0.826719
-0.0716568 -0.255577 -0.14654 -0.426942 -0.123165 -0.895852
0.066332 -0.382505 0.0811447 0.280641 -0.10057 0.954529
0.103262 0.304357 -0.0140815 0.930699 0.288975 -0.224262
0.0954045 -0.418528 0.0497753 0.914627 0.398574 -0.0677902
0.10024 -0.427957 0.0593856 0.937918 0.339448 -0.071309
0.0653045 -0.42288 0.0801474 0.315339 0.474481 0.821845
-0.0133304 -0.297161 -0.143639 0.25974 -0.058796 -0.963887
-0.0202585 0.346908 0.0768231 -0.655158 -0.180289 0.733664
0.0333609 -0.32859 0.0838645 -0.540213 -0.462251 0.703202
-0.0169645 0.298796 0.13935 -0.947091 0.273388 0.168162
-0.0296157 0.461022 0.0734685 -0.426599 0.309569 0.849812
0.000903674 0.328534 -0.0198235 -0.711256 0.640332 -0.289982
-0.0366458 -0.00285217 0.0837437 -0.793228 0.172571 0.583959
-0.0751624 -0.217136 -0.0792076 -0.00275127 -0.143972 0.989578
0.0431223 -0.124116 0.0871284 0.700844 0.028213 0.712756
-0.000652737 0.475287 0.073257 0.0549664 0.698223 0.713767
0.00463596 -0.300062 -0.135298 0.668709 -0.127424 -0.732524
-0.0100363 0.0736502 0.107679 -0.602942 -0.00955718 0.797728
0.0370781 0.0194036 0.113541 0.326897 -0.354915 0.875885
-0.0207298 0.264223 0.143702 -0.985959 0.130828 0.103774
0.0517655 0.277762 -0.255456 0.780018 0.353863 -0.516094
-0.0269374 0.286466 -0.00122252 -0.92242 0.355624 -0.150575
0.0310339 -0.0283908 0.100365 0.534443 -0.230551 0.813152
-0.0557908 0.386074 0.0544293 -0.767443 -0.32843 0.550604
-0.0577854 0.0729854 0.0435951 -0.935164 -0.0260847 0.353252
-0.0278138 -0.484047 0.0869471 0.141003 -0.926459 -0.348988
0.0170114 -0.338986 -0.12877 0.574975 0.0944421 -0.812702
0.0395563 -0.406681 0.0804193 -0.360262 -0.241237 0.901119
0.0970969 0.110943 -0.0448162 0.854286 0.0856198 -0.512703
-0.0454703 0.21309 0.0445169 -0.998182 0.0490354 -0.0350354
-0.0404235 0.253344 0.279575 -0.269043 0.571144 -0.775506
0.0416113 0.270268 0.229529 0.406456 0.782911 0.471003
-0.0278062 -0.324239 -0.103203 -0.8065 0.00719613 0.59119
0.0264705 -0.471475 0.104113 0.215803 -0.353913 0.910041
0.0918384 0.303873 -0.102901 0.755098 0.572615 -0.319278
-0.0332611 -0.198882 -0.10967 0.868959 0.494628 -0.0159259
-0.0588129 -0.386373 -0.165156 -0.520955 0.0432898 -0.852486
0.00242983 0.0307667 -0.0977029 0.308031 -0.183585 -0.933495
0.0190967 -0.0074741 -0.0837408 0.615155 -0.300705 -0.728808
-0.0321278 -0.0304911 0.0916615 -0.652723 -0.112691 0.749169
0.051705 0.11197 -0.075702 0.349352 0.32129 -0.880185
-0.0507741 0.0578447 0.0251641 -0.694683 -0.710275 -0.113691
-0.0397133 -0.304897 -0.120066 -0.749815 -0.646308 0.141646
0.111724 0.0705677 0.0395455 0.985371 -0.0504417 0.16279
-0.0142068 0.49076 0.0280767 -0.101845 0.977887 -0.18266
0.0688705 -0.473409 0.0896065 0.317773 -0.388115 0.865094
-0.0574227 0.441923 0.0588718 -0.768711 0.0594684 0.636825
-0.00278327 0.314028 -0.0447558 -0.770875 0.475226 -0.424159
0.0217863 0.226387 0.30351 0.628367 -0.0670803 0.77502
0.096976 0.326599 -0.00070876 0.887206 0.445496 -0.119996
-0.0418287 -0.0942573 0.0484305 -0.993361 -0.0882982 0.0737441
-0.0150265 0.290576 0.168846 -0.870497 0.385249 0.306299
-0.0152532 0.136328 -0.0538221 -0.578045 0.267569 -0.770889
0.0402211 -0.0573576 0.0227238 0.848486 -0.0244934 -0.528651
-0.0568486 0.0886398 -0.022634 -0.94171 0.0559399 -0.331741
-0.0572717 0.277762 0.345094 0.459515 -0.202664 0.864739
-0.000365643 0.261806 -0.255456 -0.688893 -0.643371 -0.333916
0.070442 -0.00372953 0.0653693 0.708969 -0.626164 0.32447
0.0417321 -0.0902681 0.0221893 0.816372 0.0107235 -0.577426
-0.0561535 -0.0447554 -0.0378654 -0.337723 -0.337405 0.878693
0.018039 -0.445606 0.0741334 0.643853 -0.611517 -0.459892
0.0679639 -0.302963 0.0259877 0.689599 0.130437 -0.712348
0.00129655 0.271718 -0.282292 -0.315638 -0.88152 -0.351135
-0.0021033 -0.454068 0.0700536 0.544823 -0.837354 0.0447895
0.00641897 -0.332217 0.0466928 -0.864365 -0.44264 -0.238627
0.00657009 -0.142792 0.0977057 -0.226314 -0.177428 0.957759
0.0067665 -0.262346 0.0135857 -0.367344 -0.0198934 -0.929873
0.0900252 -0.467849 0.042613 0.454639 -0.00105328 -0.890675
-0.0251336 0.260839 0.123152 -0.966927 0.0982976 0.235349
0.0849481 0.179726 -0.0461459 0.721116 -0.0886685 -0.687117
0.0183412 -0.121879 0.00654427 0.297847 -0.0795971 -0.951289
-0.0226356 0.0788482 0.0959529 -0.711035 0.0539055 0.701087
-0.0853771 -0.244214 -0.0940159 -0.566253 -0.336317 0.752495
-0.0611702 0.0288628 -0.0417941 -0.883838 0.108959 0.454927
0.0847667 0.0312805 0.084469 0.684542 -0.10262 0.721714
0.106768 0.0537044 0.0571492 0.933303 -0.122287 0.337625
-0.0535242 -0.230916 -0.0856145 0.156089 0.149372 0.976383
0.0312152 -0.336569 -0.0843452 0.623928 -0.438559 0.646823
-0.0039619 -0.291358 -0.0867024 0.0177682 0.310165 0.950517
0.0562986 0.367216 0.0660946 0.757764 0.588215 0.282485
0.0138986 -0.47075 0.106772 -0.131815 -0.41773 -0.898958
0.0193687 0.238959 -0.240467 -0.388618 -0.852231 -0.350256
0.00253562 0.257938 0.227354 -0.675715 0.498068 0.543449
-0.0376356 -0.0724378 -0.104049 0.67691 -0.462192 -0.572862
0.072074 0.23098 -0.0686303 0.762237 -0.515804 -0.391078
0.0228139 0.355853 0.100607 -0.434969 0.71917 0.541846
-0.0233921 0.0964973 -0.0758229 -0.50893 0.550835 -0.661492
-0.0399248 0.0550643 0.0164454 -0.889905 -0.45358 0.0483096
-0.0404839 -0.134088 0.0486269 -0.994107 -0.0976601 -0.0470475
0.0466884 0.262773 -0.270204 0.602476 -0.346067 -0.719208
-0.026892 -0.340195 -0.136627 -0.501374 -0.188228 -0.844508
0.00268668 0.191814 0.210188 -0.542212 -0.623517 -0.563234
0.0628264 0.26374 -0.24772 0.739766 0.0955349 -0.666047
0.00957707 0.217683 -0.0678446 -0.746001 -0.0750743 -0.661699
-0.0122727 -0.120973 0.0031293 -0.392561 -0.0708032 -0.916997
-0.007664 -0.121819 0.0914198 -0.523813 -0.125956 0.84247
-0.0103914 0.289126 -0.266577 -0.934566 -0.102599 0.340676
-0.0519528 0.474078 0.0356319 -0.76976 0.58612 0.252847
-0.0336465 0.125207 -0.0418546 -0.651544 0.30864 -0.692987
0.0325752 -0.318436 -0.0784823 0.760609 -0.00431169 0.649196
-0.00539744 -0.0307329 -0.0225434 0.332616 -0.840109 0.428467
0.0917176 -0.382505 0.0505006 0.974326 0.100259 -0.201586
-0.112213 0.27196 0.363952 0.240049 -0.788283 0.566557
-0.035369 0.264707 0.00875795 -0.975794 0.190438 -0.107514
-0.0990974 -0.234059 -0.130825 -0.639709 -0.297539 -0.708691
-0.0364116 -0.273467 -0.152463 0.0127451 -0.339005 -0.940698
-0.0587827 -0.285072 -0.106769 -0.340485 -0.676784 0.652712
-0.0214456 -0.014338 -0.117286 0.632041 0.00728631 -0.774901
-0.0584502 0.312577 0.346061 0.630049 0.713995 0.305367
-0.027912 0.308225 0.0704464 -0.924585 0.35861 0.128615
0.0927451 0.305566 -0.0873069 0.901683 0.408927 -0.14052
