ply
format ascii 1.0
element vertex 816
property float x
property float y
property float z
property float nx
property float ny
property float nz
element face 0
property list uchar int vertex_indices
end_header
-0.0121553 -0.302091 -0.133642 0.338736 0.424845 -0.839503
0.00650395 -0.258407 0.0115441 -0.5079 -0.0786779 -0.857815
-0.172818 -0.0772151 -0.0917682 -0.769746 -0.181657 0.611957
0.00155635 0.225737 0.302837 0.0828228 -0.619533 0.780589
-0.0470829 0.192914 0.0270846 -0.983377 0.162315 -0.0813799
0.0323283 0.372477 -0.283882 0.53055 0.699559 -0.478679
-0.00758473 0.384062 0.00941717 -0.0491673 -0.235537 -0.970621
-0.0875918 0.00529589 -0.0576174 -0.474711 0.155577 0.866283
0.115714 0.187122 0.00365498 0.989397 -0.142744 -0.0267735
-0.0649201 0.264595 0.303561 -0.795838 -0.526734 0.298653
-0.031401 0.0496437 0.0932858 -0.76839 -0.0179983 0.639729
-0.00580482 0.326863 -0.0110974 -0.811004 0.551154 -0.196219
-0.00121918 -0.00808011 -0.0812695 0.435043 -0.495154 -0.752037
-0.0308202 0.244321 0.213779 -0.901041 0.176684 -0.396117
-0.030592 0.0369729 -0.110231 0.464855 0.13442 -0.875123
0.10775 0.286557 -0.110352 0.952143 0.299817 0.0594419
0.0512741 -0.210138 0.0802831 0.600718 0.269887 0.752528
0.0103354 0.203775 0.25698 0.165756 -0.915705 0.366073
-0.0261535 0.343757 0.0252896 -0.809511 -0.170483 -0.561806
-0.117308 0.341826 0.32311 -0.758082 0.23165 -0.609631
0.0211659 0.290177 0.223192 -0.0305501 0.78044 0.624484
0.0530842 0.380442 0.0443825 0.802106 0.593596 0.0653426
-0.1231 -0.0724485 -0.0726413 0.0085653 -0.324118 0.945978
0.0400514 -0.0630661 0.0944925 0.770387 0.148128 0.620131
0.0669014 0.274007 -0.250093 0.018729 -0.639035 -0.768949
0.0133221 0.338689 -0.251299 -0.852608 -0.280916 0.44062
-0.143675 -0.0309969 -0.0754771 -0.553268 0.221892 0.802906
-0.132694 -0.046956 -0.0701071 -0.219364 -0.134353 0.966348
0.0729955 0.354859 0.0138218 0.707735 0.706433 -0.0079414
0.0682288 -0.486964 0.0496168 -0.0429343 -0.845409 -0.532391
-0.0515705 0.0765842 -0.0147177 -0.854283 -0.480391 -0.198556
0.0148908 0.313106 -0.235853 -0.995133 -0.0737283 -0.0653737
-0.0353318 -0.337087 -0.0956297 -0.00464658 -0.462691 0.886507
-0.138365 -0.110944 -0.0859155 -0.305377 -0.465075 0.830933
-0.132754 -0.103884 -0.142813 0.237596 -0.0288092 -0.970937
-0.0682839 0.31383 0.337108 -0.0781075 -0.472863 0.877667
0.100509 0.303693 -0.0244621 0.960923 0.201942 -0.189332
-0.0714817 -0.00820453 -0.046274 -0.589786 0.0454421 0.80628
0.0373362 0.213791 0.261445 0.755036 -0.612368 0.234362
0.0814427 0.346894 -0.0105846 0.723657 0.685881 -0.0767285
0.0926654 0.298866 -0.137262 0.553031 0.790281 -0.263844
0.0580319 -0.00381878 -0.00545592 0.41286 -0.832906 -0.36853
-0.0180231 0.257354 0.22645 -0.697427 0.684244 0.213089
0.0216486 0.273283 0.266996 0.454724 0.87618 0.159799
0.0687115 -0.290507 0.0831793 0.672532 0.0522138 0.738224
-0.0456801 0.194483 0.0691207 -0.977067 -0.0228944 0.2117
0.0404738 -0.169953 0.0833905 0.4313 0.21363 0.876552
-0.100293 -0.0342249 -0.139917 0.151636 0.227361 -0.961932
0.107508 0.0873845 -0.0132394 0.972759 -0.0238079 -0.230591
-0.0283219 0.0743517 0.0958802 -0.745373 0.034424 0.665758
0.00746937 -0.276991 0.012879 -0.656715 -0.127951 -0.743205
-0.0142821 -0.328398 -0.124471 0.705242 -0.701529 -0.102427
-0.00106832 0.346653 -0.295225 0.292829 -0.922346 -0.25205
-0.0413358 0.283903 0.0600702 -0.961267 0.2756 0.00326154
0.00861578 0.209567 0.270013 0.00182974 -0.966002 0.258529
-0.0313971 0.336516 -0.282675 -0.91297 -0.348422 0.212339
-0.0384434 0.0952283 -0.0692624 -0.651722 0.685807 -0.323926
0.109077 0.223686 -0.0221995 0.843764 -0.00040484 -0.536714
-0.105361 -0.178038 -0.150778 -0.284454 -0.313967 -0.90582
-0.0739857 0.280765 0.294389 -0.99843 -0.0558874 -0.00373442
0.0160372 0.236719 -0.0812695 -0.744255 -0.260173 -0.615138
0.0756503 0.307555 -0.194945 0.0587771 0.711805 0.699913
-0.0814675 0.361617 0.326006 0.304318 0.942757 -0.136385
-0.0186566 0.108261 0.110059 -0.674824 -0.190284 0.713025
-0.0296682 0.0904617 -0.0893547 -0.317958 0.644034 -0.695789
-0.11779 -0.0109876 -0.140159 0.0549659 0.441261 -0.895694
-0.0106317 0.288729 0.200263 -0.778996 0.479179 0.404416
-0.0229179 0.322277 0.0800719 -0.937939 0.234692 0.255325
-0.0217187 -0.226067 0.0389069 -0.847427 -0.221625 -0.482441
0.080417 -0.43242 0.0384242 0.582881 -0.279881 -0.762835
-0.051118 0.0363393 -0.121575 0.148768 0.344396 -0.926962
0.0790292 0.300556 -0.150899 -0.241542 0.913672 -0.326895
-0.0979999 0.340861 0.364139 -0.667583 0.498601 0.552929
-0.00182257 -0.263476 -0.117713 0.55844 0.287855 -0.778
0.059842 0.000583933 -0.0128171 0.494656 -0.808258 -0.319429
-0.0658704 0.457191 0.0343138 -0.97734 0.208798 0.0347972
0.00520674 0.168297 0.141133 -0.290652 -0.338372 0.895001
-0.0120648 0.27811 0.320214 0.492697 0.264102 0.829156
-0.145968 -0.0525976 -0.0743307 -0.377185 0.013601 0.926038
-0.0538181 -0.246702 -0.0934576 -0.732833 -0.302752 0.609341
0.0813823 0.332896 0.0629362 0.911821 0.373414 0.170717
0.00626266 -0.0231681 0.109697 0.097933 -0.12668 0.987097
0.0343194 -0.0211167 0.0979317 0.538189 -0.25651 0.802842
-0.0751321 0.311416 0.335177 -0.328281 -0.639933 0.694779
-0.0161375 -0.215809 -0.0877256 0.656522 0.639564 0.399921
-0.042814 0.210412 0.0155565 -0.967242 0.205447 -0.149113
0.0787878 -0.406837 0.0374438 0.531396 -0.0909259 -0.84223
-0.027496 0.017665 -0.111076 0.594001 0.109939 -0.796917
-0.137038 -0.0594458 -0.157777 0.183321 0.117555 -0.975999
-0.149105 -0.124278 -0.142934 -0.244261 -0.322691 -0.914444
0.0055084 -0.235238 -0.103474 0.790199 0.451975 -0.413889
-0.0218846 0.301521 0.152356 -0.932538 0.328482 0.14991
-0.0932031 0.321553 0.329626 -0.476978 -0.847136 0.234206
-0.0320137 0.290419 0.1138 -0.942726 0.247463 0.223674
0.100027 0.292108 0.0418785 0.888811 0.200214 0.412224
0.100992 0.10277 -0.0317931 0.920097 0.00190187 -0.391685
0.103285 0.0418602 0.0219904 0.961018 -0.264773 -0.0796185
-0.0386735 0.313588 0.33204 0.626382 -0.021729 0.779213
0.00876664 0.0477129 -0.0936989 0.175813 -0.324603 -0.929367
0.07559 0.155626 0.106077 0.714101 -0.0424116 0.698756
0.0454818 0.158281 -0.0743307 0.287254 0.0526724 -0.956405
0.0890451 0.287764 0.0908119 0.92915 0.164806 0.330938
-0.0678313 0.274007 0.277736 -0.786379 0.0375072 -0.616605
-0.0297285 -0.465967 0.0664961 -0.419002 0.738243 -0.528616
-0.0508163 -0.262028 -0.142813 -0.224151 0.857497 -0.463094
0.0497657 -0.296782 0.00939455 0.242731 0.0518328 -0.968708
-0.0224503 0.255906 0.15127 -0.984491 -0.161632 0.0682053
-0.0570461 0.0637324 0.0307765 -0.825174 -0.541606 -0.160469
0.0227346 -0.271923 -0.0665472 0.678024 0.0490157 0.733404
-0.111214 -0.0946525 -0.145468 0.627765 -0.300841 -0.717917
-0.0578305 -0.18009 -0.083864 0.155853 0.3192 0.934784
0.10244 0.228875 0.0554242 0.976565 0.0744046 0.201952
-0.0542857 0.0524191 -0.0193335 -0.933002 0.309168 0.184182
-0.179093 -0.0546792 -0.105766 -0.842129 0.321641 0.432859
-0.0147045 -0.48262 0.114223 0.0886064 -0.379144 0.921086
0.0401118 0.361617 -0.252265 0.691022 0.615211 0.379478
0.0789085 0.220307 0.101673 0.729828 -0.0485269 0.681907
-0.0248487 0.159005 -0.0456103 -0.563264 0.0607077 -0.824044
-0.139874 -0.00901154 -0.0835623 -0.661912 0.421811 0.619635
0.0909759 0.112967 0.0889415 0.804013 -0.107135 0.58488
-0.034172 0.43378 -0.00349497 -0.316707 -0.0525205 -0.947068
-0.0248185 -0.177918 0.0691811 -0.574714 -0.183875 0.79743
-0.0213491 0.381649 0.0719566 -0.382115 -0.202587 0.901636
0.0420425 -0.190951 0.0228459 0.748633 0.0979592 -0.655708
0.0343194 0.261698 -0.192652 -0.996321 -0.0186011 0.0836601
-0.0104658 0.317691 0.165027 -0.809504 0.444588 0.383463
0.00547822 0.125216 -0.0736067 -0.353563 0.582209 -0.732138
0.0155847 0.315278 -0.0698658 -0.873986 0.263382 -0.408385
0.0179982 0.32276 -0.248162 -0.966119 -0.254163 -0.0448877
-0.0218922 -0.308125 -0.079399 -0.150807 -0.692614 0.705367
-0.0665643 -0.0451761 -0.113127 0.689932 -0.490973 -0.531921
0.060385 -0.480448 0.0929237 0.272321 -0.384942 0.881851
0.120903 0.204982 1.9668e-05 0.957806 -0.102265 -0.268606
0.0550754 0.255665 0.188075 0.994306 0.0287154 0.102621
0.060204 -0.378358 0.00843669 0.279781 0.296168 -0.91324
-0.0194183 -0.0285683 -0.0880273 0.607065 -0.652772 -0.453166
0.064669 0.328793 -0.21377 0.321923 0.798082 0.509344
-0.0337659 -0.0284929 0.0906309 -0.6489 -0.102487 0.75394
-0.115136 0.02483 -0.107094 -0.529469 0.774412 -0.346337
0.0160976 0.263871 -0.0836226 -0.855952 -0.0324617 -0.516035
-0.0380248 -0.336363 -0.157536 0.567267 -0.704969 -0.425708
-0.0126531 -0.0306047 -0.0637114 0.574743 -0.817262 -0.0418681
-0.0562919 0.128112 0.0111217 -0.989569 0.116375 -0.0849069
-0.186695 -0.0875328 -0.128091 -0.953057 -0.298891 -0.0484434
-0.041513 -0.181055 -0.0935783 0.5234 0.57731 0.62671
0.0967683 0.313588 -0.0322154 0.936014 0.30801 -0.170319
-0.138727 -0.127476 -0.143779 -0.0222603 -0.37336 -0.927419
0.076133 0.324449 -0.224148 0.715127 0.69049 -0.108701
-0.0392467 -0.0989365 0.0231703 -0.903599 -0.150046 -0.401242
-0.0504241 -0.316331 -0.103474 -0.83313 0.166404 0.52745
0.0971303 0.239977 0.0845972 0.896129 -0.0158397 0.443512
-0.0222316 -0.273612 -0.0748738 -0.546869 -0.234715 0.803644
0.0860283 0.312382 -0.218476 0.731919 0.635098 0.24687
0.0262945 0.12413 -0.0795801 -0.0800394 0.325888 -0.942014
-0.0430328 -0.0259889 -0.0322154 -0.243167 -0.547294 0.800837
-0.102465 -0.184434 -0.14933 -0.308809 -0.283089 -0.908019
0.01474 -0.447866 0.0574455 -0.484947 0.793403 -0.367883
0.0319059 0.368857 -0.251541 0.391579 0.755235 0.525629
-0.0022751 0.362582 -0.269401 -0.681941 0.653118 0.32923
-0.0471961 0.237081 0.289804 -0.765636 -0.555082 0.325094
0.0291908 -0.00878151 0.102819 0.428889 -0.211422 0.878268
-0.0228199 -0.203621 -0.100517 0.76662 0.635277 0.0933641
-0.122497 -0.101833 -0.139796 0.539748 -0.134466 -0.831018
0.0440336 0.0603535 -0.0824762 0.514968 -0.0362866 -0.856441
0.0783051 0.228875 -0.124592 0.49798 -0.856227 0.137445
-0.0274319 -0.212551 0.0521208 -0.881434 -0.432593 0.18957
-0.0113558 0.067775 -0.0989483 -0.0728262 0.12382 -0.989629
0.0254498 0.134146 -0.0772872 -0.209521 0.432749 -0.876829
-0.00031413 0.0108394 -0.0958711 0.411209 -0.347501 -0.842704
0.0914586 0.334103 -0.0113388 0.845836 0.516226 -0.134429
-0.0173292 -0.321882 -0.0924922 0.134095 -0.807459 0.574481
-0.0929316 0.0441228 -0.0877256 -0.643862 0.765001 -0.0146643
0.102923 0.232978 -0.0269661 0.851059 0.00181152 -0.525067
0.00933985 0.336034 0.169612 -0.304619 0.815906 0.491432
0.0637639 -0.388494 0.0795289 0.229438 -0.239043 0.943513
-0.0648748 0.446571 0.054489 -0.824304 0.166785 0.541023
-0.118334 0.00985888 -0.127126 -0.244146 0.715188 -0.654903
0.0348624 -0.413836 0.0666469 -0.972308 -0.193457 0.13112
-0.0148855 -0.176108 0.073646 -0.44451 -0.130693 0.886188
-0.0553567 -0.346017 -0.159104 0.0860848 -0.642717 -0.761252
-0.108318 -0.218344 -0.135814 -0.406269 -0.336314 -0.849611
-0.0499565 0.0684387 0.0100205 -0.715727 -0.672332 -0.188957
-0.0288121 0.331689 -0.297397 -0.536755 -0.843646 -0.0124505
-0.136133 0.0032859 -0.100758 -0.735861 0.663221 0.136552
0.00381898 -0.347224 0.0302712 -0.964681 -0.255256 0.0650733
0.0156752 0.2728 0.242137 -0.171475 0.909349 0.379053
0.110525 0.0852727 0.00354939 0.991261 -0.0906757 -0.0958055
-0.128349 -0.105453 -0.144623 0.223895 0.0371038 -0.973907
0.0574285 0.218014 -0.0881479 -0.029472 -0.899894 -0.435112
0.0544117 0.214877 -0.170206 -0.631253 -0.747362 -0.207292
0.0611091 0.348342 -0.0832606 0.139217 0.857537 -0.495227
0.0164596 -0.0203323 0.107344 0.261885 -0.0937178 0.960538
0.00982249 0.486152 0.0475653 0.443956 0.849397 0.285355
0.0532049 0.313106 0.156579 0.854876 0.314256 0.412832
0.0324489 0.315278 -0.274469 0.0875243 -0.565491 -0.820097
0.0915793 -0.375944 0.0648368 0.962178 0.0099852 0.272239
0.109077 0.0756188 0.0101035 0.989464 -0.128025 -0.0676116
0.0850629 0.254217 0.0987764 0.783677 0.0093885 0.621098
-0.06759 0.0248903 -0.0463343 -0.779617 0.102447 0.61782
0.0209547 -0.182865 0.0049824 0.296261 -0.103644 -0.949467
-0.042452 0.0616809 0.0744907 -0.842132 -0.0104229 0.539171
0.108836 0.191345 0.0375493 0.985397 -0.0102495 0.169966
0.0337763 -0.234876 0.0106692 0.348674 0.0742313 -0.9343
0.0425856 0.0386925 0.115188 0.533427 -0.105209 0.839278
-0.000977827 0.349549 -0.323221 0.320024 -0.31915 -0.892036
-0.0167258 -0.213396 0.0277634 -0.805799 -0.0698936 -0.58805
-0.0515252 0.481325 0.0380471 -0.588406 0.808427 -0.0149542
-0.0699733 -0.0655097 -0.0747531 0.434509 -0.861048 0.264193
-0.0452502 0.207998 0.0294189 -0.97664 0.161329 -0.141941
0.0434906 0.126785 0.138358 0.244845 -0.161666 0.955989
-0.02061 0.261216 0.205814 -0.894099 0.447869 0.000761964
0.110767 0.278593 -0.197237 0.92538 0.282442 -0.252782
-0.099267 -0.135078 -0.0783733 0.171867 0.0722722 0.982466
0.0379999 0.234547 -0.127488 -0.923135 -0.370577 -0.102445
0.0635226 0.123044 0.115369 0.726631 -0.081438 0.682184
0.033716 -0.0609844 0.096906 0.483165 0.207258 0.850644
0.0121455 -0.0187032 0.108008 0.177196 -0.170494 0.969295
0.0852439 0.0398087 0.0832396 0.739479 -0.155364 0.655006
0.101354 0.252769 -0.216183 0.572929 -0.436769 -0.693531
0.050188 0.0970988 -0.0825366 0.356474 0.232704 -0.904862
0.0407754 0.391303 0.0623328 0.733559 0.546867 0.403518
0.0120851 0.155505 0.135642 -0.243654 -0.299493 0.922462
-0.0131207 -0.0421592 -0.00420393 0.289541 -0.242627 -0.925904
0.0863903 -0.373289 0.0424517 0.930583 -0.0929156 -0.354093
0.0236397 -0.198432 0.0886398 -0.0146043 0.0616069 0.997994
-0.0274093 0.310451 0.0854419 -0.883475 0.418108 0.211323
-0.0233478 0.491462 0.036584 -0.146441 0.987423 0.0595877
0.0614107 -0.333225 0.0890018 0.0061128 -0.0714248 0.997427
0.00351731 -0.239462 -0.0709518 0.467565 0.614089 0.635828
0.0398704 -0.105453 0.0632379 0.993001 -0.060877 0.101207
-0.0210399 0.288729 0.172388 -0.935278 0.238573 0.261414
0.0317852 0.204378 -0.0701071 -0.218845 -0.438012 -0.871925
-0.0542555 -0.00333987 -0.0295606 -0.717839 -0.292269 0.631891
0.0831924 0.00471891 0.0133089 0.582831 -0.788058 -0.198171
-0.152303 -0.138699 -0.115541 -0.745468 -0.613908 0.259604
0.017787 0.36934 0.00140742 -0.0349817 0.235218 -0.971313
0.0323886 0.396854 0.0244279 0.773652 0.382356 -0.505239
-0.0773646 0.318174 0.340246 -0.252458 -0.512744 0.820585
0.113542 0.274973 -0.132797 0.996209 0.00697803 0.0867134
0.026023 0.47505 0.0461926 0.695253 0.697627 0.173033
0.0315439 -0.383667 0.0770249 -0.636495 0.198429 0.745319
-0.041317 -0.0504254 0.00403209 -0.688784 0.0143383 -0.724825
-0.0289214 0.372719 0.0646558 -0.607532 -0.335699 0.719869
0.092786 0.111761 -0.0497132 0.74399 0.166818 -0.647032
0.033354 0.270146 -0.135211 -0.856971 0.216229 -0.46781
0.0789085 0.350756 -0.00287651 0.71203 0.701331 -0.033891
-0.118997 -0.0520244 -0.0676937 -0.175317 -0.181165 0.9677
0.0766157 0.325656 0.0985351 0.871006 0.365296 0.328493
-0.0218394 0.125216 -0.0526697 -0.467969 0.634795 -0.61485
0.092786 0.0617413 -0.0479634 0.83506 -0.20676 -0.509828
-0.0428216 0.333138 0.0531917 -0.788177 -0.293799 0.540794
0.0241526 0.42847 0.000472196 0.600236 -0.0304327 -0.799244
0.0369742 0.00957983 -0.0671506 0.571552 -0.519507 -0.635171
0.0660567 0.348342 0.0848386 0.789106 0.570441 0.227836
-0.055055 -0.264924 -0.113369 -0.74612 -0.581328 -0.324596
0.0842785 0.323966 0.0688794 0.930651 0.336041 0.144796
0.0319059 -0.255511 0.0106088 0.231177 0.0825966 -0.969399
0.0637035 -0.457037 0.0372778 0.0308162 -0.332495 -0.942601
-0.070637 0.0626463 -0.0637717 -0.747352 0.605385 0.273815
0.0370949 0.361858 -0.283399 0.816381 0.393883 -0.422348
-0.0089574 -0.123071 0.086166 -0.518836 -0.139718 0.843379
-0.0272282 -0.0247671 0.0960009 -0.583581 -0.0635031 0.809568
0.0227648 0.243597 -0.0874239 -0.787967 -0.276834 -0.549973
-0.0234232 0.277869 0.174922 -0.967779 0.0820084 0.238074
-0.00900268 0.447054 0.0844162 -0.153012 0.150712 0.976664
-0.00010296 0.399508 0.078654 0.0560351 -0.0763663 0.995504
-0.114351 -0.0944715 -0.089777 0.756545 -0.316445 0.572277
0.0873557 0.29959 -0.158501 0.049661 0.959703 -0.276595
-0.0298755 0.290177 0.328419 0.409 -0.00859941 0.912494
0.0132014 0.31745 -0.232957 -0.997916 0.0641665 0.00679107
-0.0330395 0.0926339 0.0858643 -0.826892 0.0214329 0.561953
-0.00293879 0.337965 0.136728 -0.617084 0.783591 0.0720563
0.0897692 0.068137 0.0814295 0.756757 -0.0897647 0.647504
0.116197 0.253251 -0.176602 0.967329 -0.252923 0.0174431
-0.00269744 -0.25889 0.0164314 -0.79204 -0.141331 -0.593883
-0.0112351 -0.222929 -0.084226 0.417376 0.699043 0.580634
-0.00628746 -0.011146 -0.0141746 0.463473 -0.827683 -0.316437
-0.056322 0.0960731 -0.0152305 -0.964212 0.146646 -0.220885
0.0921826 0.254941 -0.0637114 0.905417 -0.417992 -0.0741828
-0.0567746 0.102952 -0.0104639 -0.956533 0.196817 -0.215191
-0.130461 -0.080232 -0.156208 0.244701 -0.241933 -0.93893
-0.0549343 0.139455 0.00974149 -0.986521 0.119379 -0.11192
0.021015 0.0645771 -0.0983449 0.310356 -0.0285719 -0.950191
0.111732 0.178916 0.0244788 0.988861 -0.0691573 0.131798
0.0723317 0.0526002 0.097087 0.612439 -0.0984878 0.784358
-0.0182946 0.321312 0.0968456 -0.833802 0.487048 0.25992
0.0193558 0.288971 0.225002 -0.0305501 0.78044 0.624484
-0.0648446 -0.0156335 -0.0396671 -0.524143 -0.152936 0.837785
-0.161716 -0.0885585 -0.0863981 -0.609114 -0.350208 0.711572
-0.118032 -0.126028 -0.0767442 -0.304694 -0.241992 0.921196
0.091338 0.0208478 0.0672201 0.829994 -0.324061 0.453976
0.0227648 0.417851 0.00204096 0.523791 -0.254841 -0.812834
0.0395687 0.339654 -0.0816919 -0.395098 0.786307 -0.474994
-0.088527 0.310451 0.314421 -0.689751 -0.722327 0.0498743
-0.145304 -0.159575 -0.13509 -0.308174 0.252751 0.91714
-0.0440057 0.268215 0.05019 -0.972535 0.158422 -0.170525
0.0897692 0.335068 -0.016739 0.856102 0.497345 -0.140489
0.0325696 -0.0565195 0.0141989 0.773932 0.119167 -0.621955
0.10956 0.131491 0.0105937 0.991651 0.00446594 -0.128873
0.0275013 -0.266372 -0.0735464 0.890749 0.212038 0.402003
0.04518 0.281489 -0.182274 -0.598467 0.647633 0.471603
-0.0234911 0.253493 0.137815 -0.975803 -0.0722872 0.206357
-0.134745 -0.16042 -0.128815 -0.651613 0.0226164 0.758214
0.0842785 0.334586 0.0455138 0.848851 0.490695 0.196646
0.0776414 -0.405389 0.0314025 0.720321 -0.0318018 -0.692912
-0.00758473 0.489773 0.0204881 0.051202 0.93269 -0.357025
-0.00296898 -0.231014 0.0151153 -0.56864 -0.0745188 -0.819204
-0.0469396 0.109287 -0.0396067 -0.864263 0.287232 -0.412974
0.0249672 0.285833 -0.105404 -0.93131 0.0532809 -0.360311
-0.131306 -0.115831 -0.0863981 -0.309768 -0.235507 0.921184
0.0421028 -0.0620102 0.0718962 0.976998 -0.188117 0.100437
-0.054889 0.238408 0.257222 -0.936477 -0.214281 -0.277658
-0.00333095 0.0121894 0.113378 -0.371507 -0.201964 0.906197
-0.00595561 -0.313435 -0.0832606 0.352354 -0.773161 0.527323
0.091338 0.253975 -0.0549022 0.89553 -0.413382 -0.164747
0.0273203 -0.483344 0.0798004 -0.196574 -0.911441 0.361433
-0.0525962 -0.269027 -0.122419 -0.87712 -0.473076 -0.0828287
-0.041366 -0.1139 0.0375493 -0.974814 -0.114856 -0.191167
-0.0366182 0.13318 0.0899069 -0.895081 -0.0760854 0.439364
-0.0143576 0.33362 -0.300776 -0.00237929 -0.989836 -0.142196
0.0188128 -0.252132 -0.0987069 0.777683 0.40607 -0.479912
0.0630399 -0.0352205 0.050371 0.636906 -0.690047 -0.343781
0.0515758 -0.151128 0.0703275 0.712017 0.211196 0.669648
-0.0259649 0.275214 0.325523 0.248179 -0.202187 0.947379
-0.105542 -0.0466544 -0.144623 0.202341 0.0590992 -0.97753
0.0381206 0.394681 0.0662246 0.604369 0.592753 0.532337
-0.0780283 0.304658 0.328178 -0.489111 -0.653765 0.577375
0.028165 0.155264 0.139564 -0.00894024 -0.244594 0.969584
-0.064558 0.437159 0.04841 -0.928646 0.134958 0.345546
-0.0854196 -0.0629454 -0.127126 0.621761 -0.585991 -0.519642
0.000832278 0.466121 0.0798607 0.128144 0.491986 0.861121
-0.00892722 -0.235841 -0.073124 0.246608 0.677864 0.692593
-0.0718136 -0.357602 -0.123747 -0.813816 -0.411534 0.410297
0.0561011 0.234064 0.151994 0.942451 -0.211436 0.258999
-0.125755 0.0157945 -0.113369 -0.431719 0.831192 -0.35034
0.000138396 -0.141957 0.0885795 -0.391634 -0.133115 0.910441
-0.0416903 0.0935389 -0.0666679 -0.753607 0.645679 -0.123185
-0.18223 -0.0930234 -0.115179 -0.838104 -0.335094 0.430459
-0.0501224 0.0568841 -0.113248 0.153893 0.443018 -0.883205
0.00517655 0.442951 0.0836921 0.202513 0.0577866 0.977573
-0.0459063 0.148506 0.0734952 -0.950669 -0.111571 0.289448
-0.00236559 -0.251891 -0.067392 -0.0434325 0.359741 0.932041
-0.0676202 -0.0161917 -0.041628 -0.530971 -0.106257 0.840702
0.0155847 -0.469346 0.0451971 -0.204541 -0.199315 -0.958351
0.0561011 0.377787 0.0287477 0.770926 0.628348 -0.104178
-0.0077959 0.212584 0.265186 -0.15404 -0.932477 0.32674
-0.125212 0.0067666 -0.127608 -0.328469 0.710345 -0.622509
0.0964062 0.312382 -0.107938 0.783479 0.605381 -0.140267
0.0640052 -0.346258 0.0844765 0.134962 0.211509 0.968013
0.0245448 0.361617 0.097087 -0.0768281 0.899638 0.429824
0.0364915 0.363789 -0.000809967 -0.271517 0.719707 -0.638984
0.0736592 0.14573 -0.0571347 0.589104 0.151512 -0.793725
-0.030592 0.0369729 -0.110231 0.464855 0.13442 -0.875123
-0.01659 0.196172 0.121463 -0.831968 -0.117293 0.542284
-0.0744081 0.0525398 -0.0582207 -0.795203 0.337648 0.503632
-0.0909103 0.312382 0.316111 -0.690116 -0.706857 0.155219
-0.0282464 -0.0261548 -0.0964745 0.629707 -0.542365 -0.556156
0.014197 0.12232 -0.0783733 -0.235661 0.519426 -0.821377
-0.0427462 -0.0925407 0.0351359 -0.944686 -0.167107 -0.282213
-0.111214 -0.100505 -0.0940006 0.423701 0.838614 0.34235
-0.0891907 -0.243323 -0.134607 -0.364801 -0.509638 -0.779224
-0.0345633 -0.0987555 0.0717454 -0.766605 -0.0306184 0.641389
-0.0174649 0.292832 -0.0308277 -0.875534 0.325068 -0.357452
0.0405341 0.386717 0.0149569 0.632001 0.413486 -0.655442
0.02011 0.425091 0.0772059 0.446041 -0.0265244 0.894619
0.0959236 0.314554 -0.0964141 0.7771 0.614181 -0.137465
0.0583939 0.197862 0.125988 0.858015 -0.113933 0.500828
-0.0236118 0.0820145 0.0980524 -0.744041 0.0724651 0.664192
-0.0948624 0.0408646 -0.102629 -0.594486 0.780139 -0.194859
0.00119431 -0.0261548 -0.00516932 0.311933 -0.403925 -0.859967
0.0571871 0.309968 0.151873 0.889447 0.282184 0.359522
0.0363105 0.211015 0.250464 0.702373 -0.690853 0.17145
-0.0259197 -0.108952 0.00911549 -0.563668 -0.100636 -0.819848
-0.0211757 -0.463071 0.0950959 -0.00932727 0.918837 0.394527
0.0182999 -0.353499 0.0509291 -0.885109 0.0999667 0.454521
0.0379999 0.357514 -0.0220486 -0.343306 0.931691 -0.118712
-0.0878331 0.308761 0.322868 -0.691892 -0.697319 0.187168
0.0862093 0.215963 -0.0517647 0.750617 -0.216535 -0.624249
-0.0668056 0.264836 0.278702 -0.895444 -0.0985736 -0.434124
-0.0384585 -0.342879 -0.147158 0.61671 -0.701848 -0.356481
-0.0515252 0.107899 -0.0337842 -0.901308 0.264429 -0.343105
0.044999 -0.102315 0.0313271 0.974578 -0.0381862 -0.220771
0.0630399 0.29235 0.143124 0.931609 0.139821 0.335491
-0.0806831 -0.257925 -0.13147 -0.485202 -0.768053 -0.417941
0.076314 -0.276509 0.0541571 0.992556 0.117667 -0.0314232
0.0880194 0.213308 -0.0431364 0.760562 -0.218238 -0.611488
-0.0524001 0.0194449 -0.00590845 -0.994246 -0.050333 0.0945551
-0.00983227 -0.255994 0.0496469 -0.879393 -0.465567 0.0995799
0.0205625 0.32276 0.189765 0.0090253 0.763897 0.645275
-0.0157152 0.336275 -0.296432 -0.0211739 -0.994295 -0.10454
0.0442147 0.339654 -0.269401 0.80396 0.126738 -0.581022
-0.0598669 -0.0541362 -0.0615996 0.256071 -0.822812 0.507353
0.0135634 0.318657 -0.0609359 -0.846084 0.312684 -0.431707
-0.0237475 -0.204104 0.0651687 -0.731114 -0.311597 0.606943
-0.102163 0.0170164 -0.0679953 -0.635461 0.379059 0.672684
-0.101982 0.01498 -0.124592 -0.171189 0.727243 -0.664689
-0.0315744 -0.19264 -0.122661 0.787808 0.408662 -0.460819
-0.0148855 -0.297989 -0.132315 0.331459 0.292962 -0.896832
0.0501277 0.287764 -0.257575 -0.145507 -0.466983 -0.872213
0.012236 0.280282 0.281357 0.611094 0.775672 -0.157786
0.0306991 -0.1317 0.0117175 0.64326 -0.0331747 -0.764929
-0.0414791 0.20643 0.00594779 -0.954585 0.23223 -0.186645
-7.27743e-05 0.336999 0.155011 -0.465487 0.84414 0.265988
0.039267 0.42847 0.018002 0.910796 -0.119409 -0.395211
0.10956 0.272318 0.0311008 0.886883 0.121161 0.445824
-0.00630255 0.278593 0.268203 0.0941426 0.699141 -0.708758
0.0616521 0.248907 -0.217631 -0.095377 -0.792358 -0.602555
-0.145727 -0.123373 -0.143417 -0.201745 -0.26161 -0.943853
0.0722111 -0.285438 0.0340121 0.832325 0.254318 -0.492501
0.0568251 0.377787 0.0350982 0.770926 0.628348 -0.104178
-0.044594 -0.0805336 0.0497224 -0.98664 -0.110436 0.119771
0.105215 0.205102 0.0579885 0.976279 0.0899826 0.196933
0.107026 0.291384 -0.182394 0.621408 0.773407 -0.125276
0.101113 0.037003 0.0175551 0.9573 -0.27173 -0.0986856
-0.041958 -0.105151 0.0622121 -0.940977 -0.0316931 0.336983
0.0314232 -0.00844966 0.101914 0.444668 -0.228116 0.86616
0.0414995 0.111399 0.136306 0.281808 -0.196904 0.939049
-0.035032 -0.252374 -0.139314 0.0839479 0.595173 -0.799201
0.0687115 -0.0177831 0.0298564 0.808412 -0.560105 -0.180976
-0.0552209 0.356066 0.327213 0.372089 0.893308 0.252093
-0.0906991 0.364513 0.327937 0.125502 0.908808 -0.397891
-0.0285933 0.349308 0.0547002 -0.861137 0.255512 0.439495
0.0663584 0.331689 -0.234405 0.655838 0.74748 -0.105592
0.0125377 -0.451969 0.0830586 -0.394157 0.799882 0.45258
-0.0161979 -0.245737 0.0495715 -0.931077 -0.359353 0.0629311
0.038181 0.270146 0.250464 0.443454 0.837896 0.318242
-0.054346 0.110856 0.0365613 -0.95962 0.0967322 0.264144
0.000349566 0.336999 1.9668e-05 -0.637071 0.455539 -0.621791
0.0420425 0.214273 0.201953 0.798845 -0.600349 0.037789
0.00719783 0.341585 -0.29257 0.139053 -0.869084 -0.474718
-0.121169 0.328311 0.322386 -0.742821 -0.502869 -0.441972
0.0675651 0.340861 -0.0804851 0.439853 0.714052 -0.544663
-0.104758 -0.191313 -0.139193 -0.516526 -0.380592 -0.767041
-0.0416224 0.321312 0.289321 0.375999 0.27395 -0.885199
-0.0323229 0.275214 0.00657379 -0.956013 0.245409 -0.160668
0.0570062 0.0475017 0.106379 0.577263 -0.108126 0.809368
-0.0174499 0.117191 -0.067573 -0.417196 0.637858 -0.647368
-0.0864453 -0.192157 -0.148364 -0.0825887 -0.197657 -0.976786
0.0640052 -0.423972 0.0324735 -0.104417 0.00237098 -0.994531
0.0221614 0.194845 0.182042 -0.0568238 -0.972167 -0.227293
0.0191747 0.356066 0.105112 -0.433628 0.771513 0.465547
0.0977337 0.127147 -0.041085 0.79343 0.11797 -0.597119
0.00209936 0.21186 -0.0643148 -0.634242 0.0255621 -0.772712
-0.0387564 0.194483 -0.019243 -0.878778 0.3085 -0.364113
0.10244 0.0592674 -0.0213548 0.926071 -0.250756 -0.281984
-0.0644826 0.310933 0.335177 -0.00546346 -0.46221 0.886753
0.0255102 0.382614 -0.270366 0.0967402 0.994486 -0.0404929
-0.0688571 -0.227636 -0.137624 -0.0383742 -0.344015 -0.93818
0.0477142 -0.0279348 0.0810373 0.780967 -0.224236 0.582931
-0.0344153 0.249631 0.116636 -0.913587 -0.0488131 0.403703
0.000802092 0.261698 -0.0649785 -0.761647 0.0163606 -0.647786
-0.0865358 0.0152515 -0.0585224 -0.563652 0.168653 0.808611
0.00565927 0.212101 0.164423 -0.725554 -0.632104 0.272059
-0.00140017 0.220669 0.296079 -0.105723 -0.82767 0.551168
-0.0426029 -0.100445 0.0438244 -0.994484 -0.0913878 0.0514674
0.0163993 0.313588 -0.220286 -0.880408 -0.163654 0.445084
-0.040212 -0.34119 -0.0980432 0.0094756 -0.674257 0.738436
-0.0558997 -0.259856 -0.130384 -0.133828 -0.92803 -0.347635
0.10244 0.12063 -0.0292589 0.93603 -0.0248092 -0.351046
0.00689617 0.326621 -0.272779 -0.357296 -0.903171 -0.237952
0.118731 0.252527 0.0186073 0.981028 0.0152244 0.193269
0.0937515 0.296694 -0.140038 0.546991 0.78549 -0.289492
-0.0171632 -0.0448442 -0.00370615 -0.034076 -0.341903 -0.939117
-0.0467058 0.0902204 0.065772 -0.883695 0.122517 0.451745
-0.00251645 -0.312952 -0.0968968 0.635318 -0.760194 0.13593
0.0677462 0.288729 -0.169965 -0.456091 0.889856 0.0117403
-0.150131 -0.103039 -0.151502 -0.0458732 -0.419929 -0.906397
0.0875367 0.334103 0.0344269 0.820643 0.542736 0.178838
-0.0495945 0.146213 0.0565405 -0.981403 -0.0523055 0.184696
0.0919413 -0.425662 0.0455289 0.888803 0.0272881 -0.457476
-0.0512839 0.0891343 0.0495715 -0.928224 0.148435 0.341126
0.0195066 0.295487 -0.236577 -0.898676 -0.300638 -0.319372
0.0025217 0.375132 -0.29981 0.125284 0.926345 -0.35523
0.0994231 0.030728 0.0203504 0.952446 -0.291986 -0.0871253
-0.0125173 -0.173573 0.0747623 -0.434269 -0.10524 0.894615
0.0736592 -0.272888 0.0446088 0.92124 0.183524 -0.342982
0.0544117 0.0354946 0.107827 0.577265 -0.107318 0.809474
-0.0737746 -0.0658114 -0.0716759 0.318651 -0.825399 0.466023
0.04518 0.01498 0.11193 0.47737 -0.385705 0.789525
0.06485 0.329759 -0.24237 0.720952 0.635255 -0.27691
0.00936997 0.292591 -0.0607549 -0.725245 0.200164 -0.658752
0.0438526 -0.0993588 0.0529504 0.991954 -0.110922 0.0610272
-0.0495794 0.00156629 -0.0193938 -0.83446 -0.362953 0.414658
-0.0677409 0.0246641 -0.12073 -0.135752 0.355267 -0.924855
0.060023 0.0452089 0.104508 0.589588 -0.11269 0.799804
0.0293114 0.267973 -0.221614 -0.897111 -0.441234 -0.0224727
0.0379999 0.355342 0.122248 0.270013 0.925435 0.265827
0.0829511 0.34255 -0.0522473 0.733075 0.665771 -0.139104
0.0188429 0.364271 -0.240921 -0.222424 0.617919 0.754125
0.0732368 0.353169 0.0353998 0.799358 0.595076 0.0831311
-0.0904577 0.0230802 -0.062746 -0.628021 0.268346 0.730466
0.0479556 0.327828 0.156217 0.76298 0.544152 0.348943
0.0398704 0.274731 0.232001 0.725244 0.624217 0.290473
-0.0509369 0.334827 0.342418 0.580003 0.204359 0.788565
0.0624365 0.315519 -0.117351 -0.0891259 0.755594 -0.648949
0.0878987 -0.411664 0.0480178 0.927795 0.0972102 -0.360204
0.110646 0.277386 -0.116024 0.990674 0.0729966 0.115047
-0.0659609 -0.132424 -0.117351 0.824978 0.544197 -0.152514
0.049283 -0.164523 0.0775378 0.700108 0.247042 0.66994
0.0241526 0.345688 -0.295949 0.514376 -0.438832 -0.736779
0.0155847 0.119846 -0.0792784 -0.236524 0.525432 -0.817299
-0.121471 -0.170677 -0.101543 -0.778494 -0.0798658 0.62255
0.0375173 -0.36991 0.0746718 -0.67607 0.331878 0.657865
-0.0293212 -0.0954369 0.00959819 -0.60211 -0.16608 -0.780949
-0.0101641 0.260009 -0.0495322 -0.775769 -0.0379532 -0.629875
0.0979751 0.262664 -0.0660042 0.886535 -0.458091 0.0648727
0.0455421 0.276662 -0.154398 -0.717919 0.666563 -0.200714
-0.104396 -0.0991175 -0.099793 0.170678 0.983091 0.0663473
-0.0458083 0.195448 0.0657117 -0.977067 -0.0228944 0.2117
0.0851232 0.233702 -0.128212 0.675239 -0.707543 0.208411
-0.0559449 0.08479 -0.0334222 -0.946385 -0.17042 -0.274432
0.0441543 -0.0763704 0.0319154 0.952994 0.0870957 -0.2902
-0.0240568 0.303452 0.102276 -0.896211 0.406071 0.178639
-0.0574685 0.305865 0.332522 0.00727909 -0.436516 0.899667
-0.0551907 0.0281938 0.00481647 -0.976114 0.141757 0.164639
0.00906831 -0.479965 0.112352 0.209029 -0.109791 0.971727
0.00650395 -0.116012 0.0946735 -0.124381 -0.0550219 0.990708
0.038181 0.453329 0.0504917 0.888919 0.339486 0.307525
0.0354054 -0.125304 0.0144629 0.67255 -0.024054 -0.739661
0.033535 0.253975 -0.143658 -0.997043 -0.0120282 -0.075897
-0.00239578 0.407956 -0.00367598 0.231259 -0.36966 -0.899928
-0.00010296 0.334103 -0.248645 -0.900684 -0.269845 0.340517
-0.0929919 -0.222929 -0.135814 -0.266516 -0.34178 -0.901197
-0.00462822 0.270146 0.316835 0.552022 0.15872 0.818584
0.00424132 0.195931 0.199419 -0.729621 -0.547357 -0.409943
-0.0392353 0.420988 -0.0015491 -0.377402 -0.107977 -0.919733
-0.0077959 0.212584 0.265186 -0.15404 -0.932477 0.32674
-0.0215754 0.287764 0.171784 -0.948065 0.226347 0.223472
0.0883814 0.312382 0.0670994 0.949502 0.28591 0.129236
0.0778224 0.218618 0.102759 0.756672 -0.0669657 0.650356
-0.0644675 0.265801 0.271944 -0.767774 0.0813451 -0.635536
0.0633415 -0.0315248 0.0486815 0.817849 -0.574779 -0.0274205
-0.0914231 0.313106 0.314421 -0.72773 -0.683951 -0.0511932
-0.0531393 0.378028 0.0567516 -0.624386 -0.471133 0.623038
0.0246051 0.373201 -0.283882 0.328481 0.829545 -0.451615
0.00976219 0.24058 -0.0742704 -0.771389 -0.182061 -0.609765
0.017244 -0.334432 0.0470826 -0.828585 -0.484211 0.281046
-0.0530638 0.14742 0.0291286 -0.987305 0.0709806 0.142095
0.0575492 -0.0012665 0.0838128 0.566798 -0.5509 0.612576
0.00050043 -0.0744396 -0.000161343 0.174207 -0.0137564 -0.984613
0.0169725 0.204861 0.175646 -0.499517 -0.825644 -0.262287
-0.0389902 -0.200363 -0.0791577 0.351981 0.327481 0.87685
0.0530239 -0.29654 0.0871314 -0.067985 -0.1168 0.990826
-0.03639 0.256389 0.315628 -0.191012 -0.472052 0.860629
-0.0400272 -0.286645 -0.125195 -0.492227 -0.258914 -0.831069
0.0187222 -0.452934 0.0879761 -0.224091 0.636844 0.737708
0.0133824 0.129801 0.1316 -0.305513 -0.158025 0.938983
-0.0878331 0.315519 0.332522 -0.62722 -0.626376 0.462869
0.0914586 0.326863 -0.0403006 0.920528 0.37172 -0.120219
-0.045386 -0.062161 0.0201129 -0.936011 -0.166407 -0.310149
0.0465678 0.211981 -0.166828 -0.643177 -0.74713 -0.167688
-0.0987843 -0.228963 -0.113127 -0.871036 -0.454382 0.186637
0.0551357 -0.329847 0.00976411 0.440177 0.0760792 -0.894682
0.0906139 0.232254 -0.0526697 0.875608 -0.147864 -0.459833
0.092424 0.253251 -0.0745117 0.830152 -0.555979 0.0416555
0.0630399 0.302245 -0.194341 -0.291885 0.54794 0.783942
-0.00447736 0.349308 -0.266504 -0.819279 0.0415589 0.571887
-0.0462306 0.236357 0.0716549 -0.990114 -0.0346117 0.135928
0.0480159 0.276662 0.207866 0.878735 0.41235 0.240402
0.0574888 0.259768 -0.23344 -0.218248 -0.746586 -0.628472
-0.0122458 -0.220757 0.0712627 -0.718335 -0.296707 0.629253
0.087235 0.0808681 0.0862866 0.73936 -0.11102 0.664094
0.0214073 -0.286404 0.00802942 -0.28615 -0.15147 -0.946137
0.0441543 0.230323 -0.155243 -0.871835 -0.489735 -0.00792128
0.00689617 0.0504884 0.123032 -0.378459 -0.0224126 0.925347
0.0413788 -0.0983331 0.0606735 0.998 -0.0332159 0.0537797
0.0586956 0.281489 -0.152709 -0.518973 0.803399 -0.291919
-0.0361063 0.0867811 -0.0871222 -0.36785 0.748728 -0.551447
-0.029555 0.0645771 0.0944322 -0.763515 0.0372173 0.644717
-0.000253758 -0.231618 -0.0870015 0.528606 0.822567 0.209662
-0.0665341 0.342067 0.295355 -0.394183 0.341857 -0.853085
0.0132617 -0.00865709 -0.00464137 0.124964 -0.854487 -0.504218
-0.00379857 0.00532227 -0.094785 0.525579 -0.283965 -0.801954
0.00134518 -0.290748 0.0209694 -0.856175 -0.2528 -0.450618
0.0398704 -0.109616 0.0658927 0.952325 -0.0521702 0.300591
0.000832278 0.321312 -0.0415677 -0.785197 0.474879 -0.397435
-0.0774249 -0.189623 -0.0798214 0.0385698 0.112208 0.992936
-0.0488327 0.176261 -0.00260499 -0.965174 0.220266 -0.141144
0.0620744 0.0866605 -0.0784337 0.493443 -0.00869611 -0.869735
-0.0226917 0.431366 0.0784127 -0.339244 -0.00206799 0.940696
-0.111153 -0.0436073 -0.14402 0.296845 0.116469 -0.947796
0.00946053 -0.271682 0.0102242 -0.441464 -0.106006 -0.890995
0.0266566 -0.046956 0.0938288 0.545642 0.16874 0.820854
-0.0516912 0.408438 0.00436394 -0.596178 -0.116074 -0.794417
0.0389653 0.24058 -0.202306 -0.564419 -0.635904 -0.526362
-1.24025e-05 -0.0145399 -0.0854328 0.436093 -0.499889 -0.748288
0.0174853 0.36765 -0.298362 0.54337 0.500845 -0.673723
0.0665998 0.334103 -0.220045 0.465442 0.836584 0.288947
0.0326903 -0.302816 0.0810675 -0.294493 -0.0578446 0.953901
-0.000887334 -0.315607 0.0564499 -0.880389 -0.209493 0.425474
0.0939928 0.27087 -0.229819 0.611732 -0.146687 -0.777346
-0.049881 -0.257442 -0.141969 -0.317991 0.697934 -0.641692
0.105457 0.296211 -0.11892 0.906178 0.417112 -0.0697094
0.0273203 0.399267 0.0176494 0.750069 -0.0493646 -0.659515
-0.135107 -0.010339 -0.0768649 -0.645202 0.366201 0.670531
-0.162923 -0.0901272 -0.0884496 -0.61979 -0.366502 0.693928
-0.0226992 0.0918495 0.102517 -0.749522 -0.0223972 0.6616
-0.0230838 -0.200604 -0.0956901 0.698522 0.584301 0.413109
0.106422 0.305624 0.0208737 0.91923 0.339918 0.198678
0.115352 0.279076 -0.174068 0.977354 0.205488 -0.0505314
-0.0410681 -0.0234849 -0.0282634 -0.314092 -0.687352 0.6549
0.0650309 -0.373772 0.0900275 0.0836917 -0.147115 0.985572
-0.121712 -0.208207 -0.127246 -0.6853 -0.236287 -0.688863
0.0830114 -0.325985 0.0350076 0.960799 0.189503 -0.202371
-0.0455368 -0.252856 -0.0820539 -0.565801 -0.0958484 0.818952
-0.037346 0.138007 -0.0307975 -0.790708 0.0891208 -0.605672
0.00988287 -0.308367 0.0728315 -0.679645 -0.060478 0.731044
-0.0964915 0.0399294 -0.0805455 -0.71534 0.659365 0.231357
-0.0652972 0.334586 0.296561 -0.41668 0.0757299 -0.905893
0.0906139 0.303693 0.0660435 0.952327 0.244083 0.183019
-0.0534409 0.47312 0.0509442 -0.673824 0.620324 0.401447
-0.0982412 -0.212672 -0.135935 -0.357093 -0.240069 -0.902691
0.0941135 -0.451486 0.0492246 0.826561 0.0304914 -0.562021
-0.148623 -0.0766117 -0.158863 0.0552765 -0.0741219 -0.995716
-0.0430102 0.480119 0.0140631 -0.528443 0.692337 -0.491344
-0.00275775 -0.247667 0.0648368 -0.831245 -0.291796 0.473167
0.0225537 0.272318 0.260239 0.460801 0.866717 0.190956
0.076676 -0.380047 0.0227375 0.743948 0.00340456 -0.668229
-0.159906 -0.0345266 -0.0867602 -0.726252 0.430566 0.535883
-0.036127 -0.183589 0.0540063 -0.982968 -0.160541 0.0894409
-0.0187622 0.107597 -0.0763219 -0.32845 0.612529 -0.718978
0.103888 0.313347 0.00404717 0.927506 0.369125 -0.0589789
-0.0236721 -0.173091 0.0704482 -0.563331 -0.116892 0.817921
-0.0115519 0.237443 0.309594 0.0909888 -0.399926 0.91202
0.0222519 0.286075 -0.232474 -0.912995 -0.380604 -0.146902
-0.0633966 0.0730846 -0.0881479 -0.664606 0.670816 -0.329097
0.0549547 -0.407802 0.0386203 -0.0167887 -0.534265 -0.84515
0.0793912 -0.464519 0.0407623 0.187285 -0.206516 -0.960352
0.0614711 -0.353981 0.0833905 -0.224916 0.104404 0.968769
0.0139556 0.359203 0.0937684 -0.461427 0.390245 0.79674
-0.0707275 -0.356395 -0.121695 -0.907799 -0.22636 0.353075
0.105819 0.290177 -0.101724 0.954719 0.28732 0.077197
0.0977337 0.286316 -0.221372 0.848084 0.246129 -0.469227
0.0337763 -0.457279 0.0418936 -0.265954 -0.291133 -0.918972
-0.00321027 -0.291231 -0.125316 0.487478 0.289708 -0.823671
0.0515155 0.339413 -0.0981036 -0.097164 0.770236 -0.630314
-0.124548 -0.0344361 -0.0660042 -0.326809 0.0375148 0.944346
0.0673841 0.315519 -0.258299 0.766362 0.198901 -0.610842
0.0231269 -0.382702 0.0566611 -0.892419 -0.191146 0.408719
-0.010843 -0.222447 0.0212338 -0.718607 -0.052789 -0.69341
-0.0384585 -0.342879 -0.147158 0.61671 -0.701848 -0.356481
0.115111 0.252044 0.0251538 0.936602 -0.0134885 0.350137
0.0252688 0.26556 0.294631 0.778539 0.428816 0.458251
0.00614198 -0.0495204 0.10831 0.0420874 -0.168706 0.984767
-0.0899751 0.310692 0.307181 -0.527326 -0.802613 -0.27882
0.0343194 0.364754 -0.241887 0.0306864 0.728547 0.684308
0.0340177 0.30321 -0.255885 -0.540801 -0.641899 -0.543599
-0.170525 -0.111969 -0.122902 -0.837784 -0.545133 -0.0307784
0.0520585 -0.00333987 0.0883984 0.516032 -0.487632 0.70422
-0.0341757 0.189294 -0.0284444 -0.803257 0.175638 -0.569148
-0.0247129 0.155384 -0.0456103 -0.625917 0.0747245 -0.776301
-0.0712404 -0.337328 -0.135211 -0.89909 0.349286 0.263887
-0.0550248 -0.0366987 -0.108904 0.630817 -0.471039 -0.616597
0.0478953 0.0636117 -0.0806058 0.496193 -0.0513789 -0.866691
0.0876574 0.00263726 0.0290456 0.606924 -0.78641 -0.114901
0.00203906 0.458639 0.0822742 0.189981 0.408228 0.892893
0.0931481 0.29428 0.0610356 0.960823 0.184108 0.20718
-0.000464994 0.277869 0.22295 -0.531269 0.617547 0.579991
-0.0767914 0.417368 0.0338612 -0.996498 0.0756236 -0.0356674
-0.0580115 0.0739294 -0.0968365 -0.237861 0.757537 -0.607914
-0.124126 -0.137251 -0.0910441 -0.363915 -0.560945 0.743577
-0.0409096 0.455019 -0.00262008 -0.462475 0.201407 -0.863453
0.0270487 -0.196622 0.0895448 0.0867334 0.104368 0.990749
-0.0436663 0.06868 -0.0105242 -0.935239 -0.350178 0.0519937
-0.0493078 0.168055 -0.00865379 -0.95434 0.145947 -0.260641
0.0493433 0.0319649 -0.078675 0.543557 -0.346232 -0.764637
-0.043425 -0.0518433 0.073284 -0.853564 -0.262129 0.450242
-0.0501677 0.164556 -0.00266533 -0.973775 0.137323 -0.181399
0.0111198 -0.278198 0.0636904 -0.723882 -0.21047 0.657036
-0.0194183 -0.470794 0.0551527 -0.157389 0.426651 -0.890617
-0.0405892 0.400957 0.0730125 -0.389023 -0.210724 0.896803
0.0675651 -0.445452 0.0960613 0.0914019 0.217589 0.971751
-0.0941081 0.332172 0.361243 0.120517 -0.661226 0.740443
-0.0398764 -0.309815 -0.0943023 -0.559359 -0.31315 0.767499
0.0708234 0.163952 0.108732 0.719345 0.0193518 0.694383
-0.0710594 0.281006 0.281598 -0.897101 -0.0894485 -0.432677
-0.0160017 -0.469346 0.105112 0.0482035 0.625787 0.778503
-0.0168918 0.291626 0.179266 -0.85768 0.378107 0.348453
0.0264755 -0.407319 0.0828474 -0.862629 -0.143285 0.485119
0.0499467 0.366685 0.080796 0.558824 0.608434 0.563493
0.0925447 0.250838 0.0915963 0.84317 0.00735603 0.537597
0.115231 0.191949 0.0152246 0.974115 -0.140783 0.176859
0.0701597 -0.422766 0.0311989 0.0898607 -0.0113961 -0.995889
-0.0353822 -0.342155 -0.143779 0.623921 -0.730627 -0.277319
-0.0327811 0.334103 0.0623328 -0.7399 -0.331724 0.585241
0.038181 0.458639 0.0282273 0.915569 0.397829 -0.0588743
0.111249 0.276903 0.0282348 0.889055 0.149858 0.432579
-0.0543007 0.0218584 0.0163333 -0.988099 0.107631 0.109893
-0.0208514 -0.015626 -0.102508 0.64628 -0.404008 -0.647379
0.0350434 -0.0549206 0.0180265 0.808991 0.166146 -0.563852
-0.116041 -0.102315 -0.141124 0.484181 0.213722 -0.848464
0.0415598 -0.37522 0.0841748 -0.487039 0.310902 0.81617
0.0495847 0.171675 -0.073305 0.224147 -0.119956 -0.967145
-0.0470829 0.165642 -0.017282 -0.8958 0.110936 -0.43039
-0.0387413 -0.321882 -0.143658 -0.144456 0.426738 -0.892764
-0.0226313 0.118277 0.109215 -0.76773 -0.130879 0.627265
-0.102948 -0.0919977 -0.0990689 0.0766744 0.983012 0.166761
-0.0644525 0.0837643 -0.00838227 -0.923248 -0.183257 -0.337684
0.00665481 0.341102 -0.309706 0.452002 -0.661224 -0.598729
0.0131109 0.384062 0.0847782 0.0204184 0.471671 0.881538
0.086873 0.0321459 -0.0330903 0.793888 -0.438112 -0.421663
0.0336556 0.254217 -0.14764 -0.99277 0.0948882 -0.0735093
0.00167702 0.314071 0.188196 -0.533052 0.586662 0.609658
0.0220408 0.325173 -0.219924 -0.707578 0.315396 0.632344
0.0796929 -0.48624 0.086528 0.0598482 -0.696744 0.714819
-0.0810452 0.359444 0.344107 0.199129 0.916932 0.345807
0.0445163 -0.202173 0.0175778 0.702576 0.0749189 -0.707654
-0.135892 -0.156679 -0.123626 -0.651613 0.0226164 0.758214
0.0340177 0.232375 -0.187221 -0.724689 -0.606693 -0.326725
0.0257213 0.265077 -0.206167 -0.979991 -0.11143 0.16493
-0.0361119 0.460328 -0.00370615 -0.272233 0.341145 -0.899728
0.109801 0.0783339 0.0277106 0.990803 -0.135158 0.0065002
0.0167311 -0.207362 0.086347 -0.420957 0.0590752 0.905155
0.0251481 -0.403941 0.0664659 -0.984122 -0.0597241 0.167143
-0.0366842 -0.0436375 -0.0952074 0.571124 -0.503083 -0.648633
0.0195368 0.348825 -0.302948 0.469129 -0.397205 -0.788762
-0.00925907 -0.177556 0.0755768 -0.41472 -0.140297 0.899069
0.107267 0.287523 -0.105404 0.959885 0.264576 0.0928458
-0.0302941 0.430401 0.0767836 -0.361445 0.00512635 0.932379
0.0413788 0.290902 -0.193014 -0.524689 0.553704 0.646616
-0.0502732 -0.304988 -0.117834 -0.962233 0.233209 -0.140431
-0.0289893 0.488083 0.0443071 -0.260494 0.93303 0.248189
-0.000947641 0.392027 0.00719978 0.0364392 -0.157478 -0.98685
0.092424 0.255182 -0.0518853 0.908733 -0.39198 -0.143374
0.10063 0.148023 -0.0337842 0.815373 0.130686 -0.563993
-0.0945607 -0.0967643 -0.109749 0.570224 0.819763 0.0532343
0.0812616 0.326138 0.0839335 0.882525 0.393124 0.258075
0.0429476 0.434263 0.0394651 0.996425 0.0196113 0.0821709
0.00092277 0.371512 0.00687547 -0.262069 0.128754 -0.956422
-0.141443 -0.029051 -0.150054 -0.0191392 0.505277 -0.862745
-0.064558 0.25132 0.281598 -0.88076 -0.356239 -0.312017
0.028889 -0.43966 0.083119 -0.555595 0.519542 0.649146
-0.0458611 -0.0611051 0.0204607 -0.936011 -0.166407 -0.310149
0.0579112 -0.400803 0.0100658 0.191024 -0.605672 -0.772445
0.0259023 0.164073 -0.068659 -0.327421 0.0521525 -0.943438
0.0247258 0.477464 0.0349096 0.680422 0.732033 -0.0339669
-0.0441716 0.248424 0.091717 -0.956097 -0.0866569 0.279945
-0.0454764 0.343998 0.305733 0.545281 0.7191 -0.430772
-0.0426858 0.391544 0.0699051 -0.376177 -0.275625 0.884602
0.0530842 0.351239 -0.0791577 -0.202485 0.889402 -0.409835
0.00158647 0.341826 -0.300776 0.346067 -0.829765 -0.437868
-0.0486894 0.135473 0.0497073 -0.976274 -0.0646084 0.206674
-0.0548287 -0.219068 -0.143658 0.182569 -0.200099 -0.962616
0.0525412 0.287523 -0.188549 -0.376565 0.759303 0.530714
0.112456 0.279558 0.0256629 0.890411 0.165422 0.424032
0.111973 0.284627 0.0240018 0.928141 0.177628 0.327113
-0.0506352 0.16709 0.017755 -0.98488 0.172145 -0.0194222
-0.0497151 -0.0157391 0.0544287 -0.985817 0.00931608 0.167562
-0.102405 -0.167178 -0.151502 -0.0174633 -0.0413689 -0.998991
-0.000253758 -0.231618 -0.0870015 0.528606 0.822567 0.209662
-0.0623105 -0.340466 -0.108783 -0.621527 -0.192637 0.759339
-0.0514197 -0.287128 -0.101844 -0.974483 -0.0712965 0.212837
0.112697 0.163832 0.00645311 0.989711 -0.140262 0.0282693
0.0594196 0.260009 0.162372 0.984882 -0.0692133 0.158798
0.00222004 -0.231497 -0.0902597 0.704848 0.695447 0.139797
0.0513948 -0.337087 0.0844765 -0.368967 -0.341873 0.864284
-0.0627781 -0.255753 -0.101241 -0.557553 -0.722323 0.409126
0.0978544 0.231651 -0.0372536 0.831557 -0.0397561 -0.554014
0.0469298 0.273283 -0.166828 -0.66901 0.724984 0.163778
-0.0651162 -0.361705 -0.147158 -0.466719 -0.788691 -0.400176
-0.180782 -0.0980918 -0.116265 -0.838104 -0.335094 0.430459
0.0190239 0.264112 0.303561 0.681667 0.369287 0.631631
0.0902519 0.252044 -0.0547815 0.912519 -0.326305 -0.246647
-0.0343186 0.156953 -0.0371932 -0.750984 0.070322 -0.656565
0.0925447 0.256147 -0.224751 0.364503 -0.543058 -0.756456
-0.0818296 -0.14618 -0.141969 0.357003 0.265629 -0.895539
0.0269582 -0.434592 0.0769344 -0.682673 0.469067 0.560298
-0.0545119 0.0595088 -0.109869 0.0185444 0.553959 -0.832337
-0.0478145 -0.277233 -0.130022 -0.713126 -0.35507 -0.604464
0.0421632 0.212343 0.185421 0.747129 -0.663078 0.046105
0.110163 0.287281 -0.166465 0.697912 0.713935 0.0567191
0.0652723 -0.338776 0.0142479 0.595383 -0.0713782 -0.800265
0.0448784 -0.194088 0.0903896 0.580799 0.0412946 0.812999
0.0115723 -0.281094 0.0586824 -0.729009 -0.178069 0.660937
0.096889 0.306107 -0.124954 0.640429 0.700359 -0.315195
-0.0304902 0.227427 -0.0210531 -0.916401 0.0655341 -0.394859
0.108594 0.0688007 0.026749 0.986859 -0.161366 -0.00841661
-0.0323267 -0.00946407 0.0927427 -0.669115 0.130333 0.731641
0.0565837 0.297659 -0.264574 0.327546 -0.414818 -0.848905
0.109198 0.275697 -0.109387 0.983767 0.0560726 0.170464
-0.0643016 0.0809284 -0.00949851 -0.890617 -0.244543 -0.383406
-0.0490891 0.135473 0.0444278 -0.976231 -0.00827682 0.216574
0.0903725 0.0644564 -0.0526697 0.835968 -0.187041 -0.51592
-0.108378 -0.182021 -0.146796 -0.388524 -0.38275 -0.838183
-0.109162 -0.0921787 -0.111438 0.151327 0.912007 0.381238
0.10244 0.276662 -0.0562899 0.969691 -0.243016 0.0253513
0.0308802 0.204861 0.234535 0.612509 -0.784247 0.0989387
-0.0290685 0.249631 0.225726 -0.841828 0.485195 -0.236455
-0.03649 0.361375 0.0498732 -0.751735 -0.459944 0.472595
-0.0290836 0.207274 0.23538 -0.607735 -0.539286 -0.582948
-0.0247431 0.201844 0.23369 -0.564775 -0.565232 -0.601284
0.0717887 0.220187 0.111085 0.810879 -0.084721 0.579048
-0.0527169 -0.0352808 -0.107697 0.630817 -0.471039 -0.616597
-0.135892 -0.106358 -0.0796404 -0.160026 -0.379823 0.911112
-0.0168918 -0.216171 0.0274504 -0.805799 -0.0698936 -0.58805
-0.0059858 -0.293886 -0.127729 0.499798 0.287812 -0.816925
0.0276219 0.293074 -0.113972 -0.858375 0.242627 -0.452022
-0.0545119 0.0595088 -0.109869 0.0185444 0.553959 -0.832337
0.0513344 -0.450279 0.0947942 -0.0177455 0.231098 0.972769
0.0122964 0.366202 0.0877347 -0.45822 0.42843 0.778769
-0.112119 -0.171039 -0.150416 -0.27898 -0.312389 -0.908066
0.00943034 0.485911 0.0190202 0.401946 0.85805 -0.319671
0.0230363 -0.183469 0.00566119 0.40534 -0.0716101 -0.911357
-0.00302929 -0.198312 0.0133315 -0.491477 -0.121868 -0.862322
0.0427062 0.258561 -0.219321 -0.498207 -0.650226 -0.573581
0.0594196 0.37296 0.0446239 0.791755 0.606032 0.0764836
0.0235492 -0.20338 0.00582711 0.243411 -0.0737525 -0.967115
0.0933894 0.231168 -0.16731 0.544947 -0.834657 0.0798791
-0.0161677 0.316002 0.00778053 -0.877591 0.458274 -0.140779
0.0507914 -0.0530501 0.080615 0.839462 0.0973372 0.53463
0.00532742 -0.298471 0.0633585 -0.802832 0.0460661 0.594422
-0.100051 -0.114564 -0.0848294 0.426671 0.439169 0.790622
-0.0605306 0.0924529 0.00143759 -0.985973 0.0537055 -0.158031
-0.0879236 -0.130855 -0.138952 0.50493 0.395185 -0.767382
-0.0476109 -0.0325656 0.0169555 -0.975658 -0.106016 -0.191968
-0.108438 -0.107203 -0.136538 0.582823 0.303995 -0.753595
