ply
format ascii 1.0
element vertex 817
property float x
property float y
property float z
property float nx
property float ny
property float nz
element face 0
property list uchar int vertex_indices
end_header
0.0927406 -0.384094 0.060796 0.986758 0.0522979 0.153539
0.0449736 0.347851 -0.0793989 -0.373586 0.810385 -0.451342
-0.0472395 0.3727 0.277466 0.458354 0.493174 -0.739385
-0.138314 -0.047885 -0.154849 0.469664 -0.336465 -0.816215
-0.044205 0.031214 0.062334 -0.973583 -0.100229 0.205157
-0.138736 -0.0619678 -0.101413 0.0796736 -0.990848 -0.108965
-0.020706 0.270652 0.235851 -0.082289 0.990882 -0.106682
-0.0696039 0.0429447 -0.0452021 -0.826706 0.0355195 0.561512
-0.0162279 0.168484 -0.0495445 -0.466235 0.0414877 -0.883687
-0.047477 0.255695 0.0512215 -0.989789 0.0664052 -0.126125
0.0321272 -0.00525205 -0.00737146 -0.0556119 -0.962911 -0.264026
0.0820051 0.324209 0.0773516 0.920394 0.321098 0.223095
0.0357459 0.0414369 -0.0876013 0.387001 -0.321552 -0.864196
0.0972037 0.0423717 0.0056559 0.937191 -0.330122 -0.11266
-0.17034 -0.0777695 -0.0992415 -0.539285 -0.541055 0.645314
0.0625846 0.325657 0.123249 0.845533 0.302295 0.440104
-0.0365793 0.351711 0.0676113 -0.817849 -0.0879291 0.568676
0.0857444 0.333618 -0.0935119 0.499339 0.83019 -0.24788
0.0589056 0.370529 0.0288081 0.68508 0.67792 -0.266627
0.023201 0.372217 0.00447982 0.190014 0.488746 -0.851482
-0.0616126 -0.247547 -0.10467 -0.886626 0.429217 -0.172243
0.0945499 0.308528 -0.175355 0.0693157 0.896533 0.437519
-0.0403819 -0.0783726 0.0195616 -0.833319 -0.0794669 -0.547051
0.101184 0.270893 -0.0573248 0.928165 -0.369282 0.0462657
-0.104117 0.375354 0.302074 -0.759203 0.491841 -0.426266
0.0342381 -0.181204 0.0114081 0.531625 0.102734 -0.840726
0.0820051 0.355571 -0.247006 0.631045 0.170884 -0.756691
0.0253722 0.355813 -0.0260832 -0.52933 0.84716 -0.0461555
0.00679616 -0.194714 -0.0805448 0.780799 0.590752 -0.203383
-0.0410502 0.376319 0.0123656 -0.281974 -0.612705 -0.738298
-0.0374878 -0.107443 0.0238461 -0.868264 -0.137194 -0.476755
-0.0280942 0.43856 -0.00832137 -0.115469 -0.165841 -0.979369
0.0280863 -0.393743 0.0501811 -0.927885 -0.31288 0.202818
-0.00282356 -0.0013563 -0.0740312 0.361736 -0.886728 -0.287854
0.0820051 0.290676 0.0973149 0.900318 0.0570268 0.431481
0.0569153 0.308769 -0.124693 -0.261857 0.67595 -0.688856
0.0256135 0.391517 0.0783166 0.396082 0.425739 0.813551
-0.0668145 0.438802 0.00645503 -0.839044 -0.0240454 -0.543532
-0.0820734 0.410093 0.0312734 -0.921627 0.14674 -0.359263
-0.021656 0.254971 -0.0345872 -0.874097 0.0254508 -0.485085
0.120605 0.251594 -0.192725 0.668964 -0.699039 -0.252651
-0.0290215 -0.160578 0.0301576 -0.795479 -0.253154 -0.550569
-0.0348303 -0.198695 -0.114561 0.668294 0.352732 -0.654953
0.0946705 -0.448024 0.0484773 0.852146 0.189857 -0.48765
-0.0965181 -0.117033 -0.0806655 0.0661359 0.131239 0.989142
-0.0315019 0.472818 -0.0032401 -0.206592 0.505443 -0.837763
0.0362887 0.394895 0.0647766 0.72819 0.475519 0.493579
0.0113799 -0.282046 0.0765374 -0.850257 -0.125067 0.511293
-0.0401227 -0.240431 -0.119506 0.0266832 0.220785 -0.974958
-0.0520682 0.0841678 -0.0134177 -0.699921 -0.705711 -0.109921
-0.0346079 0.468475 0.0722553 -0.316873 0.48741 0.813648
0.0149383 0.300326 -0.06607 -0.788381 0.195289 -0.583367
0.0973243 0.260037 -0.0403168 0.923322 -0.271954 -0.271141
-0.0538926 0.158593 0.0187247 -0.992163 0.10712 -0.0643282
-0.0687897 0.0784382 0.0305685 -0.983958 -0.172206 0.0465935
-0.0635878 0.328069 0.274571 -0.7382 0.0863594 -0.669031
-0.0427887 -0.0324452 0.0820258 -0.864 -0.0733358 0.498123
-0.00460276 0.408887 -0.00637632 0.139256 -0.3545 -0.924628
0.0295338 -0.321128 0.0769898 -0.626012 -0.328623 0.707189
-0.178542 -0.079217 -0.143872 -0.505623 -0.441924 -0.740978
-0.0463348 0.058867 -0.119627 0.268126 0.397491 -0.877559
-0.0218671 -0.254302 -0.0670953 0.136202 -0.64637 0.75077
0.0118925 -0.301587 0.0168588 -0.645458 -0.268836 -0.714921
0.0604737 0.288022 -0.163534 -0.602033 0.727568 0.32894
-0.0609039 -0.24417 -0.0942356 -0.949331 -0.00749347 0.31419
-0.0351621 -0.289525 -0.134705 0.508902 -0.721231 -0.46994
-0.0220631 0.21794 0.121681 -0.879539 -0.254485 0.402055
-0.0551592 -0.00299979 0.0339497 -0.995929 0.00251647 0.0901049
0.0879157 0.0461412 0.0746678 0.812323 -0.139711 0.566226
0.110714 0.127954 0.026733 0.999154 -0.00800535 -0.0403455
-0.00484405 0.307081 0.308587 0.698661 0.305421 0.646986
-0.0530407 0.092129 0.0525031 -0.895079 0.125153 0.427983
-0.0575264 0.260761 0.27047 -0.854623 -0.438318 0.278382
0.0747074 0.307804 -0.180421 -0.123987 0.61067 0.782118
-0.0879538 -0.0907366 -0.131086 0.614957 0.512175 -0.599587
0.0815829 0.346163 -0.0261737 0.753751 0.656879 -0.0192301
0.0161144 0.0824791 -0.0983972 0.256424 0.185696 -0.948559
0.0118925 0.382108 0.0846192 0.0177162 0.386375 0.922172
-0.0973624 -0.205088 -0.123608 0.287401 0.929984 -0.229195
0.0640321 0.00143219 0.00734463 0.48084 -0.781856 -0.396856
-0.160388 -0.059676 -0.0836207 0.32304 -0.370664 0.870777
0.0130686 0.139293 -0.0737296 -0.451499 0.297627 -0.84117
0.0567947 0.292364 -0.171013 -0.651012 0.620904 0.436649
0.0140336 0.205998 0.225357 0.174385 -0.964874 0.19649
-0.0463763 0.387175 0.00722401 -0.386239 -0.399257 -0.831513
0.051246 -0.406047 0.0387294 -0.265177 -0.620466 -0.73804
-0.0447366 -0.0128061 0.081091 -0.838121 0.0583995 0.54235
0.0946705 0.0265097 0.0310736 0.926439 -0.367854 -0.0799636
-0.0343327 -0.0108234 -0.0927278 0.50085 -0.696505 -0.51384
0.0832113 0.276442 -0.225052 -0.171685 -0.605561 -0.777059
0.0495573 0.239893 -0.177164 -0.813537 -0.473997 -0.336875
0.0365902 0.254006 0.281809 0.950533 0.104035 0.292683
-0.0702522 -0.0307565 -0.0669144 0.0434359 -0.856351 0.514565
0.0142748 0.3534 0.118545 -0.384305 0.904555 0.184635
0.0871919 0.0069234 0.0328339 0.722978 -0.689013 0.0506432
-0.0648091 0.004575 -0.131448 0.247551 -0.330947 -0.9106
-0.042375 0.0216847 -0.122522 0.60906 -0.0579073 -0.791008
-0.0320221 0.360396 0.309311 0.890191 0.229357 0.393643
0.0455767 -0.368895 0.0218383 -0.21114 0.175855 -0.961507
-0.0660756 -0.154667 -0.134946 0.324276 -0.0266482 -0.945587
0.0351428 -0.131628 0.0854334 0.498391 0.0881854 0.862456
-0.134575 -0.0545796 -0.121436 0.0630778 -0.901369 -0.428434
0.0690984 0.0299776 -0.0527411 0.67071 -0.504949 -0.543299
-0.0657892 -0.305688 -0.108891 0.581572 -0.752101 0.310029
-0.0310646 0.285609 0.00793267 -0.926616 0.298745 -0.228328
-0.047232 -0.0796995 0.0425065 -0.976995 -0.197961 -0.0793266
-0.0136194 0.071442 0.111126 -0.611682 0.00298432 0.791098
-0.0472697 0.20829 0.0364376 -0.994361 0.0690195 -0.0805168
-0.00351718 0.478366 -0.000224506 0.282761 0.660128 -0.695901
0.0422595 0.304668 0.183742 0.845408 0.348043 0.405155
-0.0666788 0.394412 0.326198 0.326024 0.795803 0.5103
-0.0522265 0.0952049 -0.0684222 -0.542025 0.835477 -0.0904844
-0.0511183 -0.48204 0.0800054 -0.976126 -0.217198 -0.00188491
0.0352031 -0.333673 0.0747884 -0.657632 -0.424149 0.622589
-0.0185197 0.327828 0.143514 -0.861574 0.489034 0.136144
-0.017992 -0.0572937 -0.00147598 -0.111993 -0.229111 -0.966936
-0.0586573 0.0455079 -0.126502 0.0231196 0.308871 -0.950823
0.0914138 0.334824 -0.0650447 0.790402 0.600533 -0.120932
-0.0869285 -0.147792 -0.14146 0.197628 -0.0942449 -0.975736
-0.0128504 0.114806 -0.0795799 -0.350991 0.70772 -0.613138
0.0207282 0.471129 0.0115137 0.732512 0.544484 -0.408611
0.0346602 -0.147068 0.0825385 0.442883 -0.0441639 0.895491
0.00764051 -0.0468899 0.000740484 0.324801 -0.0537725 -0.944253
-0.0569685 0.100211 0.0414661 -0.932841 0.140251 0.331869
0.0545029 0.225539 -0.164137 -0.287576 -0.860499 -0.420525
-0.064779 0.393206 0.30907 0.367916 0.928302 0.0537971
-0.0263226 -0.280357 -0.134343 0.697141 -0.119949 -0.706828
0.08683 -0.335844 0.0601929 0.925433 0.150351 0.347804
0.0356856 0.379455 0.00879212 0.277237 0.545736 -0.790767
0.00580101 0.383797 -0.267029 -0.203611 -0.947232 0.247578
0.0912931 0.179822 0.0914646 0.771756 -0.0806404 0.630784
0.0758532 -0.480351 0.0881475 0.264572 -0.503424 0.822536
-0.00994035 -0.0435727 0.104794 -0.278813 -0.22627 0.933309
-0.00502497 0.422156 0.0826892 0.182851 -0.135096 0.973814
-0.142657 -0.120229 -0.102137 -0.81911 0.0713816 0.569178
-0.0144336 0.276683 0.220411 -0.535298 0.795222 0.284742
0.0712093 0.0468348 -0.0632353 0.67265 -0.353179 -0.650236
-0.0667843 0.0783779 0.0364602 -0.955743 -0.0155058 0.293795
0.0517285 -0.39688 0.0804879 -0.0548365 -0.15746 0.986002
0.00215219 -0.26154 0.0646861 -0.916207 -0.340702 0.210918
0.00679616 -0.0787949 0.0991242 -0.137667 -0.245674 0.959527
0.0265785 0.355571 -0.035703 -0.525804 0.824689 -0.20837
-0.0411831 0.106423 -0.0544298 -0.825335 0.503129 -0.256286
-0.015097 0.229399 0.270712 -0.411036 -0.792532 0.450492
-0.0604365 0.275718 0.277225 -0.971046 -0.178055 0.159265
0.0438276 -0.138624 0.0524428 0.974254 0.225453 0.00104789
-0.037812 0.251352 0.00732956 -0.980286 0.0961652 -0.172601
0.0161445 0.415642 0.0721347 0.442655 0.0781217 0.893283
0.0108673 0.453759 0.0769898 0.377778 0.160644 0.911854
0.0175618 -0.189045 0.0831717 -0.26543 -0.0253462 0.963797
-0.0486907 0.223609 0.0602532 -0.994589 -0.0804872 0.0656898
0.0885187 0.339408 -0.0650447 0.753666 0.640061 -0.149362
-0.0507414 0.158231 0.0648068 -0.959366 0.0219251 0.281313
-0.0146749 -0.161905 0.0125164 -0.661563 -0.187545 -0.726059
-0.0494296 0.106242 -0.036668 -0.959636 0.0714847 -0.27201
-0.0754994 0.417089 0.0363245 -0.969453 0.245179 -0.00694839
-0.0348454 -0.193146 -0.123487 0.548756 0.301279 -0.779806
-0.00176811 0.267033 -0.0607625 -0.747431 0.104038 -0.656143
-0.0593509 0.118727 0.0232061 -0.988859 0.147755 -0.0180587
0.0455164 0.356054 0.113298 0.44978 0.831571 0.325864
0.0545029 0.319143 0.143273 0.864301 0.291265 0.410059
-0.00131578 0.397548 -0.266547 -0.923965 0.0132503 0.382248
0.0156017 -0.0798805 0.0985211 0.156047 -0.216773 0.963669
-0.16274 -0.0545193 -0.0844048 0.0236233 -0.529802 0.847793
-0.125468 -0.0568413 -0.0981559 0.166076 -0.986001 -0.0148632
-0.021852 0.163659 0.121198 -0.738597 -0.17755 0.650346
-0.0555965 0.371011 0.0519453 -0.72218 -0.56116 0.404421
-0.0539454 0.00710435 -0.0240628 -0.825825 -0.372158 0.423688
0.0353237 0.377284 -0.267029 -0.274982 -0.732893 -0.622297
-0.0693325 0.421191 0.0448134 -0.974085 0.132929 0.183001
0.0903281 0.283438 -0.231083 -0.0235967 -0.48924 -0.87183
-0.0584311 -0.289525 -0.0868173 -0.535598 0.00274457 0.844469
-0.0566067 0.402373 0.00558051 -0.638089 -0.245932 -0.72963
0.0206679 0.368116 0.00443459 0.201301 0.451929 -0.869045
-0.0448308 0.222523 0.079553 -0.955134 -0.146046 0.25766
-0.0422812 0.251111 0.103708 -0.91765 -0.163328 0.362274
0.0523317 0.357501 -0.0544901 -0.0229215 0.962872 -0.268985
-0.163102 -0.0524386 -0.0833795 0.1052 -0.356701 0.928277
-0.0352714 0.274753 0.305451 -0.429545 -0.375105 0.821454
0.0542013 0.325657 -0.200927 -0.571671 0.214107 0.792054
-0.0278454 0.289711 0.00265539 -0.919767 0.303301 -0.249073
0.00148876 0.0124721 0.115288 -0.406492 -0.224027 0.885763
0.0832113 0.234948 -0.16076 0.328147 -0.929922 -0.166024
-0.0772484 0.338684 0.314377 -0.802782 -0.466021 0.371975
-0.0414758 0.329275 0.0251357 -0.522468 -0.75496 -0.396311
0.0407518 0.252317 0.260579 0.989332 0.0322036 0.142072
-0.144949 -0.02177 -0.0744533 -0.160562 -0.237418 0.958046
-0.0833098 -0.173726 -0.0776499 -0.250881 -0.459551 0.851981
0.0842969 -0.447059 0.0397623 0.521878 -0.0189951 -0.852808
-0.137952 -0.00544052 -0.152919 0.318563 0.139321 -0.937607
0.0811607 -0.430896 0.0420994 0.508644 -0.113565 -0.853454
0.0120131 0.380178 -0.285846 0.0115433 -0.982017 -0.188438
0.0184062 -0.0600379 0.103467 0.419558 -0.0246678 0.907393
-0.124985 -0.174932 -0.114199 -0.832986 -0.547821 -0.0776327
0.0511857 -0.155632 0.0408328 0.951234 0.202167 -0.232987
0.021271 0.0707786 0.127591 0.103599 -0.116455 0.987778
0.0558901 -0.176862 0.0704158 0.877895 -0.0300898 0.477907
-0.155141 -0.139348 -0.114319 -0.744707 -0.515782 0.423533
0.0449133 0.265345 -0.158468 -0.967555 0.220806 -0.122809
0.0393646 0.275236 0.234163 0.830641 0.521773 0.194393
-0.0181579 -0.482523 0.0564536 -0.244138 -0.258863 -0.934551
-0.0214449 0.271617 0.219567 -0.645239 0.743409 0.176093
-0.00638196 0.269928 0.314619 0.230633 -0.282284 0.931195
0.0160239 0.387898 -0.272337 -0.275512 -0.934211 -0.226587
0.0388821 0.227951 0.231991 0.889247 -0.436382 0.137154
-0.0294135 0.27596 0.152018 -0.987915 -0.0631169 0.141561
0.0179237 -0.232469 -0.0839826 0.781322 -0.584244 -0.219533
-0.0695436 0.45979 0.0267255 -0.962571 0.204283 -0.178115
0.0523317 0.244477 -0.186935 -0.658682 -0.585515 -0.472556
-0.000411119 0.403338 0.00175071 0.269132 -0.3302 -0.90473
-0.00632165 0.480296 0.00110236 0.268458 0.691572 -0.670566
0.0956356 0.0519613 -0.0267768 0.896635 -0.334367 -0.290247
0.0528744 -0.233555 0.0234613 0.692298 0.247154 -0.677966
-0.024958 0.35147 0.295319 0.864666 0.473725 -0.167144
0.00941971 -0.27312 0.0600421 -0.966357 -0.174144 0.189282
0.104924 0.285127 0.0353143 0.87146 0.166458 0.461355
-0.0100007 0.332653 0.296525 0.820329 0.560164 0.115229
-0.0261266 -0.0104389 -0.0848873 0.55699 -0.745815 -0.365406
0.0311622 0.215768 0.215345 0.631668 -0.757885 0.163115
-0.188433 -0.0644406 -0.111786 -0.736108 -0.550055 0.394442
0.0136717 0.482709 0.0206472 0.604181 0.758326 -0.244759
0.0450942 -0.0831976 0.0432151 0.998266 0.00222257 -0.0588233
-0.0169968 0.277407 0.317031 -0.250639 -0.243917 0.936848
0.09069 0.190558 0.0925502 0.79277 -0.0157169 0.609318
-0.0100308 0.0270827 0.112212 -0.531909 -0.168827 0.829801
-0.0792086 -0.144173 -0.139892 0.293535 -0.0347334 -0.955317
0.0378568 0.108835 -0.0810876 0.338364 0.370141 -0.865162
-0.00140627 0.341096 0.00309265 -0.684548 0.179401 -0.706547
-0.10083 -0.203037 -0.122763 0.287401 0.929984 -0.229195
-0.0338503 0.262691 -0.00625569 -0.93858 0.152911 -0.309332
-0.111174 0.017101 -0.0639591 -0.387589 0.190516 0.90193
0.000674524 0.08459 0.122465 -0.489328 -0.0690466 0.869362
-0.0274836 0.265586 0.143695 -0.966897 -0.118494 0.225986
0.0665049 0.321555 -0.182231 -0.469924 0.32735 0.819765
0.0537791 0.0776542 -0.0812083 0.472198 -0.0878096 -0.877108
0.011802 -0.00737429 -0.0482177 0.00743755 -0.996311 0.0854951
0.0464814 0.33796 -0.0959244 -0.211741 0.672995 -0.708691
0.0963593 0.153888 0.0792213 0.879218 -0.0520588 0.473566
-0.00595981 -0.251649 -0.0788561 0.589776 -0.720016 0.365707
0.0245882 -0.281081 0.0779246 -0.392675 -0.242475 0.887137
-0.197963 -0.0573238 -0.133137 -0.807908 -0.584782 -0.0729057
-0.1201 -0.0531322 -0.115164 0.0484269 -0.940651 -0.335904
0.024166 0.341579 -0.061426 -0.697783 0.589836 -0.406438
-0.0259683 0.298154 0.0040124 -0.922042 0.341748 -0.181789
-0.0231185 0.316007 0.151294 -0.921805 0.364614 0.131654
0.0201553 -0.381199 0.044738 -0.940383 -0.309996 0.139939
-0.0227114 0.304909 0.00104204 -0.903498 0.381018 -0.196257
-0.0591247 0.119269 0.0183817 -0.9846 0.168311 -0.0472647
0.063429 0.338925 -0.253278 -0.0278523 -0.414724 -0.909521
-0.00324577 -0.0128438 0.109136 -0.188561 -0.18353 0.96476
-0.0393594 0.107086 -0.057566 -0.708015 0.633145 -0.312798
-0.0466137 0.0844694 -0.0294908 -0.994559 0.0888341 0.0544154
-0.108158 0.365704 0.302074 -0.400618 -0.887301 0.228478
0.0320065 0.39007 -0.226258 -0.709437 0.298398 0.638481
-0.0245811 -0.192784 -0.0593151 -0.0254323 0.488878 0.871981
0.0494366 0.239049 -0.121195 -0.72576 -0.684135 -0.0723277
-0.0560789 -0.266606 -0.124452 -0.575281 0.404676 -0.710837
-0.132404 0.0424622 -0.0865157 -0.543022 0.686136 0.484092
0.109507 0.295018 0.00230859 0.95001 0.270941 -0.15515
0.0510651 -0.259851 0.0885093 0.206005 -0.0730429 0.975821
0.0460592 -0.254785 0.0127576 0.413439 0.178574 -0.892849
0.106733 0.0859169 0.0459895 0.966726 -0.104187 0.233635
0.0078818 0.417572 -0.2692 -0.510808 0.853822 -0.100314
0.0547441 0.078981 -0.0812083 0.456169 -0.057341 -0.888044
0.01527 0.293088 0.275778 0.690018 0.670407 -0.272817
0.0817638 0.0830219 -0.0625116 0.70282 -0.0593357 -0.708889
-0.129267 -0.0710146 -0.147491 0.375853 0.322273 -0.868835
0.11192 0.284644 -0.00236558 0.957672 0.266796 -0.108095
0.0602928 -0.189769 0.0392647 0.932305 0.201692 -0.300214
0.093585 0.0741561 0.071049 0.863423 -0.101145 0.494238
0.109749 0.292123 -0.00319487 0.943538 0.266902 -0.196211
0.0659621 0.304427 -0.178733 -0.337173 0.521327 0.783921
-0.00469325 -0.216185 0.0189735 -0.662929 -0.0512687 -0.746925
0.0415358 0.393447 0.0528801 0.879649 0.448191 0.159192
0.0205473 -0.150445 0.0869412 0.252357 -0.0735825 0.964832
0.102873 0.282473 -0.227223 0.240036 -0.480378 -0.843575
-0.0486832 -0.0654056 0.0376815 -0.98078 -0.129735 -0.145734
0.00571058 -0.26926 0.05769 -0.945755 -0.290685 0.145083
-0.0327533 0.245562 0.214983 -0.916523 -0.117996 -0.38218
0.017984 -0.123245 0.0883284 0.213288 -0.00776219 0.976959
-0.0175095 0.226021 -0.0386884 -0.776852 0.103704 -0.621085
0.0590262 0.013618 -0.0326572 0.460645 -0.845353 -0.270525
0.0928612 0.0231473 0.0355932 0.883957 -0.465729 0.0414188
-0.061703 -0.250684 -0.104911 -0.893073 0.400599 -0.204793
0.0603531 -0.309066 0.0100888 0.469834 0.101385 -0.876914
-0.0546918 0.127834 0.042989 -0.973006 0.0592164 0.223055
0.0216932 -0.387471 0.0402598 -0.908505 -0.396328 -0.132448
0.00450433 0.341096 0.167337 -0.298601 0.88005 0.369256
-0.0992924 0.0455381 -0.0666128 -0.543158 0.433425 0.719112
0.0850207 0.344715 -0.00774841 0.791051 0.610479 -0.0394219
-0.0280641 0.0947224 -0.092185 -0.137299 0.652362 -0.745367
-0.0334168 0.213838 0.0994258 -0.873045 -0.115863 0.473675
-0.0436321 0.373906 0.0598612 -0.713504 -0.413262 0.565797
0.00359967 -0.48397 0.060012 0.194888 -0.618598 -0.761153
-0.00939759 0.37656 0.082448 -0.252999 0.179887 0.950596
-0.186503 -0.0514434 -0.0980956 -0.731236 -0.428807 0.53049
-0.0451832 0.088269 -0.0318732 -0.914871 -0.296314 -0.274244
-0.0445933 0.331929 0.0333014 -0.943744 -0.0708741 -0.322992
0.0904487 0.289469 0.0657416 0.970151 0.148209 0.191941
-0.0305368 0.253524 0.128496 -0.905837 -0.155158 0.394189
-0.0635878 0.302256 0.298214 -0.884076 -0.299869 0.358452
-0.0635878 0.302256 0.298214 -0.884076 -0.299869 0.358452
0.0395455 0.27403 0.236816 0.870433 0.457581 0.181565
0.109507 0.151958 0.0135568 0.99457 -0.0974815 0.036428
0.0329112 0.345921 0.154671 0.333705 0.815748 0.472437
-0.0168913 -0.465635 0.100632 0.16898 0.613521 0.771387
-0.164007 -0.0678181 -0.0959847 -0.269201 -0.453775 0.849482
0.0308003 0.357742 -0.0343761 -0.480333 0.854915 -0.195959
0.0630672 -0.424623 0.0313865 -0.06678 -0.0549059 -0.996256
-0.0523471 0.103166 0.0577503 -0.921101 0.112784 0.37263
0.0216932 -0.111122 0.00828701 0.466515 -0.0161877 -0.884365
0.0138828 -0.34863 0.0460498 -0.966084 -0.0393716 0.255208
0.000282501 0.386933 0.00731448 0.0597318 -0.0693825 -0.9958
-0.0278078 0.294294 0.139955 -0.983212 0.117872 0.139283
-0.134816 -0.041703 -0.155693 0.482789 -0.308685 -0.819529
-0.0133027 0.267998 -0.046348 -0.822908 0.0690167 -0.563967
-0.111174 0.0371849 -0.132534 0.0643554 0.54541 -0.835695
-0.05531 0.066979 -0.0217709 -0.86223 0.420896 0.281791
0.06361 0.317695 -0.117335 -0.111338 0.687033 -0.718046
0.0482908 0.00371933 -0.0213789 0.358915 -0.906722 -0.22144
-0.0554382 0.0937574 -0.0913407 -0.2375 0.903386 -0.357054
-0.0151272 0.329034 0.0153058 -0.548475 -0.1267 -0.826512
-0.0132575 0.311664 -0.0193584 -0.870271 0.385378 -0.306776
0.0270006 -0.00562902 0.102321 0.405459 -0.379584 0.831576
0.109507 0.245683 -0.181386 0.472841 -0.868571 -0.148341
-0.0142829 0.319143 0.269143 0.393541 0.439286 -0.80756
-0.161233 -0.0778902 -0.0930897 -0.378626 -0.427748 0.820777
0.0257944 0.281508 0.261785 0.603567 0.793741 -0.0753732
-0.0118854 0.139293 0.122706 -0.538225 -0.152596 0.828872
0.0523317 -0.0439647 0.0609468 0.90599 -0.423112 -0.0125896
0.0287497 0.357984 0.13109 0.125639 0.968558 0.214731
0.0163858 0.306116 -0.0698093 -0.863357 0.159948 -0.478572
-0.110872 -0.0626313 -0.11046 0.673234 0.719764 -0.1694
0.041174 -0.165885 0.080699 0.535004 0.182402 0.824925
-0.0151423 -0.233193 0.0566647 -0.822129 -0.484467 0.298989
-0.0421582 0.143153 0.0822067 -0.913504 -0.0594722 0.402459
-0.024566 0.324209 0.0479044 -0.890245 -0.444827 -0.0979384
0.0723552 0.356536 -0.0326271 0.488004 0.872607 -0.0202404
0.0574582 0.242909 -0.185849 -0.614168 -0.550559 -0.565405
0.0251309 0.373182 0.0857953 -0.171382 0.662415 0.72927
0.076577 0.349781 0.0311 0.78795 0.604377 0.117741
-0.18964 -0.00342384 -0.107203 -0.77363 0.424907 0.470054
-0.0299941 0.329758 0.0238922 -0.509614 -0.456791 -0.729133
0.0187681 0.376077 0.0832321 -0.0338354 0.525353 0.850211
0.0474464 0.271617 -0.177164 -0.961464 0.240704 0.132846
0.0991337 0.26824 -0.220589 0.146328 -0.515552 -0.844272
0.0456973 -0.0280876 0.0336708 0.792656 -0.604027 -0.0827595
0.0368918 0.333859 -0.219865 -0.980461 -0.165341 -0.106574
-0.0264131 0.265103 -0.0217408 -0.899768 0.138334 -0.413861
0.0431642 0.414918 -0.252796 -0.151186 0.988247 0.0226165
-0.00285375 0.419743 0.0799752 0.182851 -0.135096 0.973814
0.0242866 0.40165 -0.244352 -0.665508 0.45727 0.589918
0.0113497 0.325898 -0.0550932 -0.736067 0.364113 -0.570637
0.0207885 -0.483729 0.0775929 0.0504608 -0.997073 -0.057445
0.0185269 0.215527 0.257322 0.491119 -0.849163 0.194228
-0.0437075 -0.127889 0.0519905 -0.99764 -0.0670793 0.0146838
0.0144256 -0.183134 0.00383147 0.0427006 0.0325738 -0.998557
-0.0254556 0.171017 -0.0432721 -0.686373 0.0406551 -0.726112
0.00706757 0.345198 0.160944 -0.307734 0.882059 0.35675
0.0105054 -0.23054 -0.0958038 0.718457 0.0145463 -0.69542
0.0964799 0.0474379 -0.0175491 0.908356 -0.361163 -0.210835
0.101546 0.247734 -0.195499 0.168802 -0.887981 -0.42778
0.0870712 0.324933 0.0523373 0.909683 0.353969 0.217217
0.0360474 0.276925 0.247069 0.653822 0.72582 0.213781
-0.0447083 -0.0910985 0.0392798 -0.96703 -0.167036 -0.19223
0.0861063 0.311182 0.0745773 0.957015 0.21331 0.196521
-0.173597 -0.0845245 -0.12216 0.723007 0.683337 -0.101544
0.0234422 -0.0336514 0.00877704 0.555486 -0.154881 -0.816974
0.0709077 0.350023 -0.252313 0.511422 0.0793227 -0.855661
0.0637909 0.398996 -0.243628 0.851262 0.524456 0.017292
-0.130051 0.00804671 -0.147129 0.309511 0.192171 -0.931275
-0.036127 0.295983 0.0407273 -0.883785 0.4179 -0.210435
0.0579407 0.276925 0.147796 0.951652 0.0504827 0.303
0.0391837 0.0733117 -0.0850682 0.446606 -0.039441 -0.893861
-0.0747455 0.44242 0.0209506 -0.956722 -0.0149613 -0.29062
-0.0592453 0.266551 0.272641 -0.890856 -0.400993 0.213495
-0.039595 -0.000315147 -0.108891 0.445287 -0.605774 -0.659361
0.0647559 -0.00936081 0.0392798 0.934552 -0.347132 0.0781828
-0.0397815 -0.188804 -0.0704124 -0.36505 0.295752 0.882762
-0.0271669 -0.460328 0.081875 -0.23424 0.959546 0.156217
-0.07369 -0.300622 -0.098759 -0.754552 -0.264983 0.600363
0.0709077 0.323968 -0.114561 -0.0711699 0.758263 -0.648053
-0.0229526 0.210582 0.116796 -0.888669 -0.157157 0.430777
-0.0631958 -0.306412 -0.123849 0.540001 -0.841544 -0.0142487
-0.0553401 -0.00409482 -0.0299432 -0.683273 -0.634171 0.361892
-0.107012 0.379696 0.309794 -0.7337 0.678607 0.0343089
0.0344793 0.350264 -0.217212 -0.993275 -0.107908 0.0419621
0.055106 -0.0195083 0.0624848 0.872178 -0.379725 0.308406
0.0112593 0.221558 0.281809 -0.0374904 -0.879355 0.474689
0.0922581 0.255936 -0.0550932 0.925316 -0.372341 -0.071775
0.0387615 0.259555 0.268661 0.962383 0.155458 0.222828
-0.0757406 -0.181687 -0.0872395 -0.519039 -0.508636 0.686941
0.0803767 0.349781 -0.0383868 0.679515 0.733622 -0.00769704
0.0235629 0.3534 -0.0175189 -0.519743 0.847783 -0.105506
0.111317 0.305874 -0.170651 0.238549 0.952129 0.191168
-0.164309 -0.116429 -0.133619 -0.331679 -0.487191 -0.807857
-0.0377856 0.164986 0.0941183 -0.901205 -0.073211 0.427166
0.0932231 0.226021 0.0869412 0.94461 0.0550379 0.323548
0.111317 0.301049 -0.138927 0.596564 0.802334 -0.019283
-0.0551441 0.319143 0.264077 -0.452431 0.221266 -0.863914
-0.11817 -0.0453519 -0.0821733 0.166221 -0.761811 0.626111
-0.0617483 0.0847709 -0.102016 -0.219747 0.733669 -0.642993
-0.00755803 -0.26154 -0.106841 0.874026 -0.406914 -0.265517
-0.0843351 0.348093 0.308105 -0.680704 -0.712105 0.171898
0.0842969 0.0801269 0.085162 0.751864 -0.130466 0.646281
0.0511254 0.364256 -0.0305765 0.0531564 0.994047 -0.095107
0.00764051 0.137725 0.13308 -0.353304 -0.213122 0.910909
-0.146336 0.0432462 -0.119748 -0.394927 0.871445 -0.290889
-0.0507791 0.0990649 -0.0366378 -0.965165 0.00860698 -0.261499
0.0438879 -0.483005 0.0846494 0.013451 -0.965618 0.259618
-0.0442032 0.124577 0.0753915 -0.924063 -0.0234146 0.381522
-0.0298056 -0.104307 0.0724061 -0.609692 -0.149909 0.778334
0.0445514 -0.141399 0.0504073 0.970359 0.241067 -0.0170111
0.0764564 0.204188 -0.0619688 0.714144 -0.220485 -0.664368
-0.0107998 0.209496 0.223668 -0.644983 -0.692635 -0.322882
-0.115335 -0.0575349 -0.110942 -0.259255 -0.964692 -0.0464355
0.0990131 0.273788 -0.22457 0.182746 -0.484142 -0.855693
-0.0150819 0.427704 0.0788594 -0.230595 -0.102282 0.967659
-0.0681564 0.452553 0.0134135 -0.878152 0.155 -0.452576
0.0129179 0.0137236 -0.0799417 0.463045 -0.483796 -0.742652
0.0573978 0.378731 -0.201892 -0.172459 0.451014 0.875696
0.00166967 0.179099 0.145504 -0.28606 -0.405917 0.867987
-0.0203894 -0.269501 -0.128553 0.723514 -0.217435 -0.655171
-0.0104832 0.150511 -0.0543092 -0.509302 0.103781 -0.854307
-0.02921 0.400443 -0.00218464 -0.0673977 -0.329547 -0.941731
0.018557 0.0772923 -0.0979147 0.347821 0.143295 -0.926546
0.0795323 -0.395915 0.0401091 0.749251 0.0298403 -0.661614
-0.00689459 -0.457433 0.0830511 -0.312758 0.919016 0.239983
-0.0464705 -0.0294296 0.0776532 -0.878938 -0.0457041 0.474741
0.0131591 0.354124 0.112212 -0.3883 0.897835 0.207643
-0.0563051 0.0246098 0.0234743 -0.985219 0.0580524 0.161164
0.0508238 0.225177 -0.15497 -0.80976 -0.576546 -0.10901
-0.0876522 -0.0348275 -0.0700506 -0.015172 -0.775558 0.631093
0.01527 -0.221613 -0.0891091 0.785025 -0.244831 -0.569028
0.067289 0.340614 0.099667 0.784241 0.541444 0.302992
0.0412946 0.356536 -0.243628 -0.643451 -0.458549 -0.612947
0.00335838 -0.244049 -0.102981 0.7817 -0.147222 -0.606028
0.00329807 0.48102 0.0610373 0.31874 0.82843 0.460553
-0.048834 -0.0575349 0.0540713 -0.976322 -0.0965888 0.19356
0.0621022 0.348093 0.0993655 0.728813 0.607523 0.315829
-0.055129 0.25473 0.271194 -0.759642 -0.553362 0.341664
-0.141028 -0.136574 -0.126382 -0.794525 -0.427509 -0.431237
-0.127156 -0.0496341 -0.120833 0.159815 -0.846946 -0.507092
0.0978068 0.241099 -0.164499 0.40768 -0.911708 -0.0508413
0.0247691 0.447728 0.00286648 0.670407 0.187829 -0.717826
-0.0256516 0.492841 0.0336406 -0.189618 0.978008 0.0868633
-0.039528 -0.0121502 -0.00667788 -0.721224 -0.608867 -0.330329
-0.0140567 -0.189407 0.0721648 -0.381633 -0.0967227 0.919239
0.0283275 0.396583 -0.297185 0.723458 -0.111572 -0.681293
0.0957562 0.259796 -0.0462274 0.908511 -0.298521 -0.292393
-0.0348379 0.109921 0.094239 -0.807028 0.0285898 0.589821
-0.0165295 0.10009 0.10986 -0.640367 -0.121943 0.758327
-0.0742027 -0.283252 -0.106961 -0.878786 0.277113 0.388514
0.0816432 0.330482 0.0644751 0.896225 0.393741 0.204324
0.0526332 0.126748 -0.0676984 0.452695 0.1913 -0.870903
-0.0165898 -0.197489 0.0695413 -0.423825 -0.108065 0.899274
-0.0559055 -0.261057 -0.123004 -0.595303 0.404808 -0.694079
0.0194315 0.326863 -0.0687237 -0.803241 0.341955 -0.487721
-0.0973624 -0.131869 -0.0763833 -0.124795 0.0838815 0.98863
-0.141511 -0.0509609 -0.085792 0.227963 -0.577422 0.783975
-0.083159 -0.291696 -0.123849 -0.976895 0.0678842 0.20265
0.012375 0.292123 0.230303 -0.214772 0.765189 0.606926
0.0590866 0.231208 -0.173666 -0.149466 -0.838257 -0.524391
-0.0221686 -0.265882 -0.0819923 0.435794 -0.784258 0.441614
-0.00481386 0.392482 0.00568606 0.144257 -0.197432 -0.969645
0.108784 0.112454 0.0429437 0.981233 0.00578479 0.192739
0.124706 0.261726 -0.175476 0.892099 -0.446498 0.0692749
0.0431642 0.281991 -0.197671 -0.986383 -0.121136 -0.111245
-0.0747153 -0.311237 -0.107082 -0.05034 -0.977147 0.20652
-0.142174 -0.092365 -0.100689 -0.710344 -0.479837 0.514944
0.0474464 0.360155 0.0987624 0.507747 0.796379 0.328593
-0.0355692 0.38235 0.297249 0.728151 0.647975 -0.223437
0.0788689 0.238928 -0.0932707 0.664814 -0.745904 0.0406079
-0.0219726 0.241823 0.144418 -0.896405 -0.301195 0.325177
-0.100227 -0.0493325 -0.0932707 0.23866 -0.827728 0.507846
0.0237438 -0.273361 0.00508294 -0.23335 -0.0810957 -0.969005
-0.0674176 -0.265159 -0.11251 -0.911591 0.313673 -0.265727
-0.0177357 0.32831 0.140438 -0.842205 0.525892 0.118863
0.0349015 -0.314856 0.0840161 -0.489319 -0.165541 0.856249
0.0408121 0.0857963 0.129099 0.297039 -0.193753 0.935001
-0.00122529 -0.260092 0.0602231 -0.853151 -0.42099 0.30806
0.0466623 -0.483005 0.0980386 0.34242 -0.777929 0.526855
0.0768183 0.0294046 -0.0396534 0.747304 -0.507924 -0.428427
0.0388821 0.225901 0.217034 0.900717 -0.425466 0.0876777
-0.113526 -0.0786742 -0.141942 0.477404 0.429342 -0.766649
-0.0309515 0.357984 0.297731 0.918765 0.305463 -0.250126
-0.125287 0.0502726 -0.0915819 -0.483058 0.834319 0.265644
0.00483604 -0.0635963 0.10419 -0.0828901 -0.136471 0.98717
0.0367109 -0.39495 0.0185099 -0.439587 -0.322176 -0.838431
0.00251403 0.0955668 -0.0962862 0.0455919 0.336517 -0.940573
-0.078515 -0.016945 -0.116853 0.531037 -0.488366 -0.692459
-0.0331529 0.286816 0.118907 -0.947784 0.212275 0.238
0.124223 0.283438 -0.198515 0.935883 0.0827391 -0.342459
0.0491954 0.295018 -0.219624 -0.773245 -0.416723 -0.477947
-0.0550913 -0.169745 -0.129639 0.361498 -0.241706 -0.900498
-0.0193792 -0.220528 -0.0540076 -0.217504 -0.0920432 0.97171
0.0610768 0.357742 0.078588 0.728135 0.619254 0.293843
0.06361 -0.4666 0.0918265 0.191493 -0.202965 0.960279
0.0880363 0.330482 0.0400337 0.840347 0.485145 0.241769
0.0178634 -0.0231873 0.104854 0.352695 -0.181849 0.917898
0.103717 0.272582 -0.06993 0.93435 -0.330009 0.13448
-0.0556342 -0.250684 -0.120109 -0.570149 0.422339 -0.70467
0.0470242 -0.287595 0.00779697 0.356116 0.138384 -0.924138
0.122655 0.289711 -0.152557 0.915314 0.33983 0.21614
-0.0162279 -0.0107103 0.104914 -0.341906 -0.0160978 0.939596
0.0293528 0.143997 0.139473 0.0598624 -0.1554 0.986036
-0.148386 -0.0607013 -0.14725 0.149168 -0.448204 -0.881398
0.018165 -0.158407 0.0889918 0.249099 -0.0148215 0.968365
0.125188 0.290193 -0.159433 0.893172 0.442533 0.0800485
0.0214519 0.475954 0.0403352 0.743195 0.669056 0.00510565
0.0438879 0.0640237 0.119027 0.550194 -0.140915 0.823061
-0.019922 -0.009979 -0.0599785 0.413785 -0.909405 -0.0420012
0.041174 -0.0557557 0.0880872 0.792663 0.122473 0.597232
0.0639115 -0.209792 0.0645957 0.90193 0.30083 0.309878
-0.0560262 -0.274085 -0.129156 -0.474671 0.404205 -0.781861
-0.0349321 0.000264127 0.08863 -0.706291 0.130468 0.695796
0.0134606 -0.260575 0.00794775 -0.409818 -0.0893557 -0.90778
0.0042631 -0.48397 0.0664955 -0.00737567 -0.98705 -0.160245
-0.0102721 0.0300379 -0.097794 0.457065 -0.136833 -0.878845
0.0263975 -0.222578 0.0968324 0.032246 -0.00535528 0.999466
0.0239248 0.38428 0.0808799 0.272601 0.413287 0.86884
0.0899663 0.305633 -0.15702 -0.334408 0.935635 0.112953
-0.0607531 0.0314854 -0.0193886 -0.958158 -0.130656 0.254679
0.0464814 0.0944209 -0.0853698 0.392181 0.129621 -0.91071
-0.054443 -0.274567 -0.131086 -0.404417 0.332691 -0.851917
-0.0949801 -0.189648 -0.12602 -0.141615 -0.385623 -0.911724
0.00350918 0.346404 0.115107 -0.671285 0.737133 0.0775329
-0.134153 -0.0742111 -0.15123 0.353727 0.319709 -0.879013
0.0142447 -0.182531 0.00383147 0.0128105 -0.00607473 -0.9999
0.104562 0.072588 0.0491257 0.967944 -0.12521 0.217731
-0.175768 0.0243837 -0.129759 -0.628062 0.738073 -0.24655
-0.0789372 -0.102618 -0.130604 0.717712 0.381246 -0.582702
0.0394852 0.273306 0.238867 0.909986 0.367746 0.191541
-0.0905472 -0.104246 -0.0859729 0.362038 0.414804 0.834785
-0.0477597 0.0517804 0.0277527 -0.999086 -0.026558 0.0334978
-0.130474 -0.0470406 -0.127106 0.222099 -0.947593 -0.229651
0.0374346 0.437354 0.0235534 0.972475 0.0194899 -0.232189
-0.0676136 0.0481315 -0.0345269 -0.912253 0.0296053 0.408556
0.0272419 -0.0323547 0.0962896 0.592214 -0.19456 0.781939
0.0246485 -0.403152 0.0435016 -0.90242 -0.412735 -0.123646
-0.134695 0.0418289 -0.0883854 -0.57346 0.64807 0.501148
-0.0280113 0.287298 -0.00509469 -0.916522 0.292902 -0.272388
-0.0267824 0.279096 0.178917 -0.964451 0.172085 0.20055
-0.0036378 0.00198725 -0.0302146 0.154257 -0.987785 0.0220453
-0.145913 -0.0705321 -0.0831986 -0.154901 0.0755756 0.985035
0.0535379 -0.476974 0.0958071 0.270385 -0.447621 0.852366
0.0642734 0.155215 -0.0570232 0.637538 0.110794 -0.76241
0.0602928 -0.180843 0.0553378 0.981051 -0.0700526 0.18064
0.0762151 0.0750607 0.094058 0.692928 -0.147602 0.705737
0.0546838 0.302256 0.152741 0.921263 0.150047 0.358831
0.0476876 0.405268 -0.22457 0.0851417 0.536017 0.839902
-0.0130012 0.119149 -0.0759008 -0.393064 0.681702 -0.617077
0.0627656 0.352676 -0.197912 -0.189098 0.350506 0.917272
0.0625846 0.325657 0.123249 0.845533 0.302295 0.440104
0.00794211 -0.318957 0.0598009 -0.712689 -0.387812 0.584531
0.0399677 -0.158286 0.0217045 0.698073 0.151866 -0.699736
0.0194918 -0.252372 0.00847548 -0.195594 0.0753135 -0.977789
0.0704252 0.229399 -0.0702918 0.633062 -0.633284 -0.445178
-0.061311 -0.169866 -0.131086 0.350183 -0.324906 -0.878526
-0.052694 -0.0227953 0.051312 -0.989166 -0.0496713 0.138143
0.066324 0.199967 -0.0704124 0.680932 -0.258344 -0.685266
-0.0452982 0.0821172 -0.0137193 -0.664904 -0.726935 -0.171661
-0.0153986 -0.0976725 0.0856144 -0.478275 -0.109152 0.8714
-0.134273 -0.11076 -0.0976131 -0.808423 0.113358 0.577583
0.0238645 -0.221975 -0.0683618 0.89108 -0.326018 0.315734
-0.0464667 -0.482281 0.0842272 -0.976126 -0.217198 -0.00188491
-0.0834304 0.367875 0.334642 -0.223635 -0.41611 0.881385
-0.0527693 0.316489 0.318478 -0.417731 -0.469658 0.777767
0.0784467 0.297189 0.100934 0.881273 0.0735831 0.466843
0.0542013 0.414918 -0.243387 0.326717 0.916881 0.229316
-0.0432561 -0.268536 -0.13374 -0.152166 0.480481 -0.863703
-0.0764342 0.356295 0.280603 -0.520787 -0.0635316 -0.851319
-0.0408813 0.292364 0.0487487 -0.906552 0.399014 -0.137665
0.0987718 0.324692 0.0182498 0.887146 0.437034 0.148236
-0.201823 -0.00365003 -0.128071 -0.873853 0.48331 0.052848
-0.00701527 -0.465876 0.0992449 0.148968 0.650404 0.744838
0.0118925 -0.235123 -0.0817511 0.703573 -0.687411 -0.180143
-0.127217 -0.109916 -0.0843445 -0.591974 -0.213909 0.777052
0.0765167 -0.416179 0.0299804 0.518434 -0.231854 -0.823085
-0.0549481 -0.292902 -0.0866967 -0.18962 -0.436945 0.879274
-0.0506735 0.152562 0.0598612 -0.959366 0.0219251 0.281313
-0.111536 -0.0768649 -0.0874204 0.368879 0.422863 0.827717
-0.0191681 0.493324 0.0307946 -0.073855 0.997166 -0.0143655
0.0291719 0.404786 -0.239044 -0.645042 0.542216 0.538445
-0.0239629 0.270411 0.220653 -0.419632 0.906822 -0.0397781
0.0324287 -0.0572937 0.0172245 0.76269 0.0255156 -0.646261
0.0157223 0.443385 0.075301 0.523547 0.0153946 0.851858
0.0660827 0.291399 -0.165705 -0.522495 0.786422 0.329454
0.101787 -0.441993 0.0628466 0.976412 0.161488 -0.143321
-0.0856619 -0.295073 -0.121798 -0.935828 -0.315118 0.157883
0.0205473 -0.0543987 0.10027 0.527397 0.0185384 0.849417
-0.0502287 0.056364 0.0682747 -0.866308 -0.190385 0.461804
-0.0633164 0.412988 0.0104055 -0.725878 -0.0842567 -0.682643
-0.023601 0.319384 0.318237 0.355114 0.236408 0.904436
-0.0343139 0.434218 0.0746376 -0.338538 -0.028454 0.940522
-0.135962 -0.0822929 -0.151833 0.150651 0.116446 -0.981705
0.0386408 0.336513 -0.231807 -0.820579 -0.243963 -0.516849
-0.172994 -0.073608 -0.14918 -0.356199 -0.303126 -0.883876
-0.0493316 0.166674 -0.00811028 -0.935282 0.109165 -0.336645
-0.138676 -0.0809058 -0.153402 0.108716 0.101029 -0.988926
0.0773007 -0.356833 0.0838352 0.32929 0.0123895 0.944147
-0.0273253 0.303944 0.263233 0.171709 0.418181 -0.891987
-0.0640703 0.0897768 0.0225249 -0.994425 0.0577099 0.0882522
-0.0244303 -0.214617 0.0472108 -0.959214 -0.264652 -0.0993413
0.0838144 0.319384 0.0775929 0.932816 0.285682 0.219636
-0.0145241 0.360637 0.0139337 -0.604445 0.18768 -0.774224
-0.0442748 0.217578 0.0801561 -0.929397 -0.175743 0.324555
0.0840557 0.0162567 -0.00334565 0.73136 -0.632785 -0.254353
0.0131591 0.294536 0.226804 0.0725523 0.73945 0.66929
0.107215 0.13483 0.00264031 0.994652 -0.0631194 -0.0817575
0.0489542 -0.420763 0.0971339 -0.0303666 0.285959 0.957761
0.0376156 0.224212 0.222944 0.825212 -0.543989 0.151992
0.0127972 -0.220166 0.00653042 -0.401234 -0.0404447 -0.915082
0.0662033 0.261726 -0.202495 -0.294491 -0.570948 -0.766351
-0.0266242 0.265103 0.201715 -0.915257 0.39426 -0.0828502
0.0260357 0.449417 0.00438935 0.741585 0.175735 -0.647433
-0.0366925 0.281026 0.0255117 -0.928564 0.26822 -0.256569
-0.0514726 0.164986 0.0561822 -0.982438 0.0898452 0.163535
0.0813416 0.277407 -0.225293 -0.256739 -0.633321 -0.730061
-0.0296246 0.296224 0.0140996 -0.917153 0.346932 -0.196133
-0.0537042 0.286574 0.258167 -0.56259 0.119759 -0.818016
0.0330922 -0.481316 0.066013 0.0984104 -0.960548 -0.260122
0.0881569 0.323244 -0.118179 0.123 0.82288 -0.554743
0.0949118 0.234827 0.0794626 0.957397 0.0585171 0.282783
0.110231 0.292847 0.0157355 0.938017 0.331225 0.102051
0.0425611 0.385968 0.0260583 0.650956 0.595977 -0.470178
-0.0463159 0.0837457 -0.0274402 -0.838996 -0.515267 -0.174889
0.0244676 -0.010273 0.012245 -0.0477197 -0.72795 -0.683968
-0.0440429 0.367875 0.0542371 -0.797132 -0.554155 0.239776
0.108663 0.0892944 0.0224758 0.996159 -0.0875268 -0.00229561
0.0570359 0.288746 -0.167273 -0.726178 0.55496 0.405814
-0.0493919 0.0627572 0.00873935 -0.989988 0.140911 0.00826626
-0.02244 0.317695 0.0376061 -0.934557 -0.187581 -0.302353
0.0291719 0.404786 -0.239044 -0.645042 0.542216 0.538445
0.103355 0.0675217 -0.013659 0.959681 -0.204947 -0.192379
-0.0324367 0.238325 0.113659 -0.86782 -0.29076 0.402924
-0.0469002 0.0270073 -0.124934 0.446004 0.0923575 -0.890253
0.0184364 -0.107081 0.00669628 0.442173 0.0208227 -0.896688
-0.180713 -0.0137033 -0.0874807 -0.612266 0.26513 0.744873
0.114935 0.309011 -0.194052 0.813005 0.571509 0.111361
0.0022728 0.00831812 0.111971 -0.390538 -0.245001 0.887386
-0.0533951 -0.243084 -0.0789164 -0.798788 -0.101268 0.593028
-0.0759517 0.389105 0.294595 -0.343035 0.719712 -0.603607
0.0393646 0.404786 -0.285364 0.741172 0.269682 -0.614765
-0.108701 -0.0528004 -0.100689 0.323285 -0.93811 0.124246
-0.140003 -0.122581 -0.140495 -0.456825 -0.460883 -0.760853
-0.0161525 0.180305 -0.0483986 -0.592454 0.0580387 -0.803511
-0.0327156 0.25473 0.295801 -0.534527 -0.572022 0.622151
-0.0439563 0.377525 0.32065 0.648497 0.595512 0.474148
0.0213916 0.353159 0.145142 -0.0434391 0.90418 0.424938
-0.0399974 0.238204 0.0235593 -0.973178 0.110526 -0.201766
0.0811607 -0.322093 0.0652893 0.908322 0.103882 0.405166
-0.0252445 -0.175656 0.0686064 -0.891015 -0.0749257 0.447748
-0.0425418 0.244597 0.0313261 -0.971277 0.0808904 -0.223779
0.0585437 -0.0194631 0.0232826 0.776058 -0.544398 -0.318379
-0.0545184 0.14653 -0.00343611 -0.940412 0.0888215 -0.328231
0.0483511 0.197916 0.14665 0.785447 -0.212325 0.58137
0.00652475 0.342544 -0.0247262 -0.686982 0.684649 -0.243541
0.0343587 0.355813 0.131029 0.296054 0.92668 0.23155
-0.0524075 0.370046 0.333677 0.45295 0.197459 0.869394
-0.0444991 0.00683671 0.0746678 -0.897445 0.0779695 0.434181
-0.113405 -0.0538559 -0.0955625 0.376367 -0.873583 0.308546
-0.00110467 0.449175 0.0813925 0.221684 0.0821268 0.971654
0.0816432 -0.310996 0.0368824 0.907685 0.328665 -0.260936
-0.115999 -0.107865 -0.0756596 -0.171742 -0.0989446 0.98016
-0.169737 -0.0686021 -0.0982162 -0.519551 -0.446583 0.728444
-0.0104832 0.33603 0.115831 -0.755703 0.654257 0.0293409
-0.0310496 0.240014 0.120233 -0.884503 -0.286409 0.368272
-0.0679001 -0.109976 -0.0926072 0.634911 0.587918 0.501239
-0.0584311 -0.289525 -0.0868173 -0.535598 0.00274457 0.844469
0.000644338 0.295018 0.26275 0.215746 0.521815 -0.825326
-0.145009 -0.0655866 -0.0868173 0.350263 -0.0301001 0.936168
-0.0915122 -0.129095 -0.142787 0.304139 0.0411093 -0.95174
-0.0696491 0.400202 0.0224678 -0.771918 -0.203401 -0.602304
0.0272419 -0.243808 0.0914646 -0.194384 -0.278611 0.940527
0.00281556 -0.483488 0.106482 -0.0475855 -0.0262059 0.998523
-0.0180373 -0.48397 0.105336 0.0143367 0.0889747 0.995931
-0.0465912 0.275477 0.0573281 -0.976183 0.201728 -0.0798293
-0.0744439 0.0568466 -0.116853 -0.0840671 0.442159 -0.892988
-0.130956 0.0311838 -0.0759611 -0.417946 0.541548 0.729415
0.0950325 0.209134 -0.0371806 0.781639 -0.167987 -0.600684
0.0735011 -0.40653 0.0230806 0.125263 -0.404196 -0.906054
-0.199772 -0.0202923 -0.107565 -0.846049 0.192407 0.497172
-0.0393688 -0.463705 0.0746376 -0.697434 0.575271 -0.427375
0.0192506 -0.262505 0.00583684 -0.305485 0.0694323 -0.949662
0.0308606 0.194659 0.157084 0.238221 -0.539032 0.807895
0.0403296 0.342544 -0.081932 -0.425979 0.795941 -0.430139
-0.0610849 0.372941 0.336572 0.424118 0.187534 0.885977
-0.120221 -0.130422 -0.149783 -0.08692 -0.241193 -0.966577
0.0447324 -0.317027 0.00452505 0.127783 0.0355733 -0.991164
-0.0137702 -0.173364 -0.0901947 0.990371 0.023415 -0.136444
0.0637306 -0.405082 0.030723 0.0572972 -0.569187 -0.820209
0.113488 0.279578 0.00135868 0.962903 0.253358 -0.0928829
0.0149986 0.481261 0.0460498 0.616651 0.770158 0.163088
0.0393043 -0.105272 0.072587 0.939175 -0.0746634 0.335225
-0.0607079 -0.163955 -0.0727043 -0.0599502 -0.111614 0.991942
-0.0441542 -0.476009 0.10612 -0.723088 -0.242933 0.646628
0.0676509 0.275718 -0.216126 -0.438714 -0.618275 -0.652124
0.0501604 0.13483 0.129039 0.649554 -0.141131 0.747102
0.030559 0.00143032 -0.0535854 0.506343 -0.809396 -0.297479
-0.0220781 -0.120289 0.00776682 -0.613174 -0.129231 -0.779306
0.066324 0.289469 0.121801 0.889138 0.0158498 0.457364
0.100581 -0.479145 0.0477385 0.941656 -0.132153 -0.309549
0.00329807 0.389105 -0.292119 -0.328381 -0.773863 -0.541574
-0.00396951 0.131332 -0.0625116 -0.460268 0.547596 -0.698779
-0.0514349 0.0844091 -0.104549 -0.0020659 0.660327 -0.750975
0.0410533 0.369322 -0.260033 -0.188599 -0.603906 -0.774421
0.0463005 0.397307 -0.275473 0.736713 -0.00664364 -0.676173
-0.0736599 0.430599 0.0312281 -0.974176 0.121823 -0.190106
0.111679 0.288746 -0.221433 0.524314 -0.286312 -0.801947
0.0129179 -0.0042946 -0.0372108 -0.0303423 -0.993583 0.10896
-0.0533875 0.373665 0.275778 0.0864707 0.513831 -0.853523
-0.0447215 0.102503 -0.0515951 -0.845612 0.508201 -0.163314
-0.128363 -0.0586205 -0.0946578 0.0619604 -0.952686 0.297574
0.0271816 0.27982 0.276984 0.742816 0.668447 -0.0374551
0.0239248 -0.436444 0.0705364 -0.716998 0.623845 0.311016
-0.0237669 0.230364 0.126204 -0.874705 -0.298864 0.381539
-0.000200014 0.219146 0.19701 -0.862868 -0.41871 -0.283091
-0.0357011 0.305392 0.0794626 -0.908581 0.399732 0.121221
0.0283878 0.176204 -0.0694475 -0.30923 0.10968 -0.944641
-0.0231788 -0.272396 -0.0993018 0.592091 -0.765131 0.252988
0.0131289 0.15232 -0.0650447 -0.496571 0.282484 -0.820744
-0.0275439 -0.116369 0.013602 -0.613174 -0.129231 -0.779306
-0.0456261 0.0572386 0.0269912 -0.919976 -0.329411 -0.212444
0.00755009 0.0514185 -0.0916422 0.160485 -0.209621 -0.964522
-0.0684127 -0.189527 -0.0834398 -0.542961 -0.373898 0.751926
0.0882775 -0.491449 0.0727679 0.132757 -0.97915 0.153756
0.0311622 0.25473 -0.100568 -0.847066 -0.136178 -0.513746
0.0247088 0.46944 0.0194485 0.765236 0.569944 -0.299295
-0.0336656 0.201535 0.0950833 -0.868379 0.0127615 0.495737
-0.00336638 0.308769 0.199785 -0.552047 0.546211 0.629998
0.048532 0.0133617 0.107206 0.513358 -0.451112 0.730042
0.070968 0.0338677 -0.0535251 0.684208 -0.49341 -0.537035
0.051246 0.240858 0.16408 0.931275 -0.223765 0.2875
-0.061688 0.386933 0.0192864 -0.689762 -0.354733 -0.631183
0.0580613 -0.430413 0.0293811 -0.0510735 0.0366818 -0.998021
0.0734408 -0.363829 0.0863381 0.243603 0.0232819 0.969595
0.0867094 0.317937 0.0602834 0.93043 0.277172 0.239742
0.0325493 0.294053 0.216913 0.60659 0.606375 0.514157
-0.0379326 0.131935 -0.0315414 -0.769165 0.288072 -0.570437
-0.0260512 -0.106418 0.00948571 -0.532221 -0.0975328 -0.840969
0.0715108 -0.274567 0.0778341 0.791584 0.106722 0.601669
-0.0663923 -0.147792 -0.133619 0.440212 0.0791989 -0.894394
0.107577 0.0860978 -0.00480821 0.98592 -0.0622827 -0.155188
0.0394249 0.122406 -0.0771674 0.322929 0.247262 -0.913553
0.0857444 0.326139 0.0546744 0.909683 0.353969 0.217217
-0.0130314 -0.207259 0.0276584 -0.72633 -0.154715 -0.669707
-0.0288557 0.46751 0.0752106 -0.271001 0.486774 0.830427
0.028026 -0.0202019 0.0994861 0.54474 -0.205531 0.813028
-0.0669803 0.370287 0.280844 -0.3929 0.218705 -0.893196
-0.00984992 0.423603 -0.00676834 -0.0365685 -0.183631 -0.982315
-0.050568 -0.0287662 0.0592882 -0.949764 -0.127225 0.285942
0.0420786 0.406474 -0.279574 0.651562 0.0683617 -0.755509
0.00393139 -0.272637 0.0310962 -0.996949 -0.0629521 -0.046139
-0.0194998 -0.173364 -0.0832589 0.617487 0.697015 0.364527
0.0282069 -0.258886 0.00681691 0.124426 0.129704 -0.983715
0.0577597 0.196589 0.123731 0.88996 -0.0374732 0.454497
0.1042 0.108775 0.0594993 0.941354 -0.043676 0.334582
-0.019922 0.33217 0.0778341 -0.702834 0.427498 0.568568
-0.0556115 0.0432764 -0.127588 0.0875635 0.251488 -0.963891
0.103355 0.309734 -0.0594357 0.969137 0.231731 0.0841077
0.0833319 0.065049 0.0842272 0.730002 -0.11356 0.673944
-0.132343 -0.128974 -0.0918835 -0.645769 -0.131691 0.75209
-0.0089452 -0.264676 -0.112993 0.803673 -0.301207 -0.51321
-0.00387902 0.34568 0.130909 -0.646776 0.76037 -0.0593131
0.0809798 0.348334 -0.0128146 0.649811 0.75976 -0.0225799
-0.0811687 -0.296521 -0.109977 -0.90913 -0.338115 0.243229
-0.173476 0.0240972 -0.115888 -0.685238 0.69881 0.205215
-0.0209171 -0.0168093 -0.00976886 0.104491 -0.481163 -0.870382
-0.00222044 0.214321 -0.063356 -0.591138 -0.041634 -0.805495
-0.136565 -0.0547606 -0.117697 0.245754 -0.896616 -0.368355
0.0472051 0.221438 0.160461 0.89392 -0.271976 0.35628
0.0357459 0.378972 0.0781055 0.276822 0.677787 0.681157
0.0144558 0.48102 0.0178577 0.654936 0.709438 -0.260301
0.0668065 0.0026243 0.0873634 0.586299 -0.634446 0.503718
0.0991337 -0.492414 0.0473616 0.580916 -0.580591 -0.570482
-0.0185951 0.0958683 0.107508 -0.667952 -0.104983 0.736762
0.0896044 0.292123 0.0757835 0.95103 0.152694 0.268751
-0.0322105 0.264862 0.221497 -0.729455 0.657539 -0.188512
0.044853 0.112695 0.130607 0.509338 -0.14706 0.847908
-0.0385452 0.231088 0.00220305 -0.974629 0.126095 -0.18493
0.0540807 0.246045 -0.188986 -0.530471 -0.567888 -0.629368
0.0306193 -0.2847 0.00402748 -0.0629089 -0.0626061 -0.996054
-0.0142829 -0.243808 0.0495629 -0.863296 -0.464955 0.19631
0.0093594 0.00178182 -0.00931652 -0.068184 -0.978583 -0.194234
0.0256135 -0.445129 0.0494725 -0.688362 0.192485 -0.699362
-0.0631204 0.0629381 -0.0344967 -0.861209 0.29783 0.411844
0.108663 0.133262 0.0159843 0.997664 -0.0370101 -0.0574202
0.0570962 0.341579 0.120414 0.773187 0.49233 0.399741
0.0405708 -0.0504784 0.0815132 0.914314 0.0628371 0.400102
-0.127337 -0.056389 -0.105635 0.129009 -0.973471 -0.188972
0.079472 -0.33319 0.0679731 0.842677 0.144614 0.518635
0.0360474 -0.37372 0.0211466 -0.283563 0.162636 -0.945062
0.0973243 0.232173 0.0701444 0.968462 0.0710968 0.238802
-0.0455093 -0.262746 -0.0763833 -0.285 -0.13805 0.948534
0.032489 -0.00738935 -0.00156645 -0.157758 -0.90677 -0.391
0.0348412 0.338925 -0.235667 -0.821188 -0.245759 -0.515027
0.0220551 0.0291031 -0.0780117 0.350874 -0.443483 -0.824749
-0.0125037 0.124818 0.120595 -0.549544 -0.165223 0.818965
-0.0151121 0.31094 0.176746 -0.790974 0.468005 0.394121
0.0441895 0.350505 0.128798 0.596489 0.722276 0.350026
-0.0130012 0.119149 -0.0759008 -0.393064 0.681702 -0.617077
0.122293 0.234344 0.00749541 0.988553 -0.0815979 0.126908
0.0879157 0.3534 -0.216247 0.678349 0.726737 0.108145
0.0251309 -0.439339 0.0778341 -0.543572 0.672191 0.502681
0.0186173 0.289228 0.296766 0.767165 0.539253 0.347368
0.0570359 -0.308101 0.0885696 0.227972 0.1193 0.966331
0.0806782 -0.403393 0.0743059 0.439845 0.0483339 0.896772
0.0793513 -0.481316 0.0869412 0.238453 -0.459704 0.85546
-0.00390921 0.120053 0.124696 -0.451014 -0.211804 0.867021
-0.145371 -0.0358528 -0.0765039 -0.0531785 -0.315386 0.947472
-0.00418062 -0.456468 0.0589565 -0.393495 0.817483 -0.420576
0.0691587 0.259796 -0.202013 -0.221529 -0.616985 -0.755152
0.0638512 -0.0127232 0.033422 0.934893 -0.352299 -0.0431282
0.0521507 0.381626 0.0337235 0.767852 0.617449 -0.170765
-0.00650257 -0.461293 0.0886903 0.472312 0.866209 0.163107
-0.0322859 0.0641443 -0.106961 0.496155 0.244889 -0.832982
