ply
format ascii 1.0
element vertex 815
property float x
property float y
property float z
property float nx
property float ny
property float nz
element face 0
property list uchar int vertex_indices
end_header
-0.0910797 0.0838004 -0.115252 0.123086 0.669732 -0.732331
0.0303834 -0.254522 0.00974058 0.0252382 0.0614016 -0.997794
0.0583808 0.256914 -0.156524 -0.96526 -0.242471 -0.0973707
0.0595273 0.306634 0.128881 0.900099 0.128512 0.416301
0.128797 0.30784 -0.175471 0.751445 0.612051 0.246421
-0.0406398 0.12459 0.0922546 -0.86801 -0.0847821 0.489256
-0.138687 -0.0213409 -0.10415 -0.40411 -0.914311 -0.0270404
0.0326762 0.27936 0.247508 0.800331 0.599464 -0.0106162
-0.00298427 -0.163048 0.00898634 -0.340863 -0.0767021 -0.936979
0.0559672 0.171232 -0.0598608 0.543729 0.00613779 -0.839238
-0.19064 0.0158734 -0.16811 -0.0580501 0.113731 -0.991814
0.01557 0.337527 0.183789 0.164432 0.794652 0.584372
-0.0505317 0.195126 0.0554929 -0.993311 0.0587105 0.0994309
-0.035824 -0.158462 -0.0478533 0.0577064 -0.242349 -0.968471
-0.0212973 -0.0197419 0.101487 -0.431281 -0.0763087 0.898985
0.0217549 0.0396621 0.125019 0.236698 -0.103799 0.966023
-0.0467172 0.333183 0.0542107 -0.705922 -0.659029 0.259529
0.0519245 0.354664 -0.0800142 -0.208985 0.898116 -0.386927
0.102127 0.0885672 -0.0137013 0.974156 -0.104814 -0.200085
-0.113466 0.0783095 -0.0870739 -0.382425 0.869681 0.312098
0.0257372 0.291428 0.226268 0.582757 0.713518 0.388956
-0.123844 -0.0182787 -0.0859274 -0.205 -0.594986 0.777153
0.00277809 0.488376 0.0170567 0.424824 0.853507 -0.301747
-0.0218404 -0.458711 0.0798549 -0.176002 0.978216 0.110081
0.0325556 0.413796 -0.264291 -0.427514 -0.795705 -0.429052
-0.0400779 -0.147601 0.0569561 -0.922832 -0.326048 0.205119
0.00196353 -0.205647 0.015601 -0.573334 -0.0671 -0.816569
-0.0406586 0.126943 0.0921943 -0.876569 -0.049681 0.478704
-0.154979 0.0573415 -0.0893668 -0.444035 0.639001 0.628101
0.0876454 0.337045 0.0259785 0.816037 0.542338 0.199882
-0.162461 0.0336282 -0.160748 0.331202 0.194848 -0.923222
0.0385895 0.0257841 -0.0673429 0.384534 -0.656847 -0.648603
-0.0915926 -0.158945 -0.0965472 0.675149 0.545198 -0.496924
0.110816 0.237726 -0.0148779 0.92868 0.0173229 -0.370477
0.00712256 0.0592423 -0.0957024 0.129472 -0.251001 -0.959289
-0.00639351 -0.218922 0.0771095 -0.704074 -0.224331 0.673762
0.0674317 0.360939 -0.0172914 0.457422 0.889247 -0.00211975
0.00498048 -0.236058 0.0797644 -0.734042 -0.234195 0.637444
0.0930759 -0.4283 0.0773206 0.784943 0.326523 0.526543
0.0878867 0.308564 -0.224949 -0.405477 -0.296488 -0.864687
-0.0312156 0.375662 0.309899 0.688229 0.183019 0.70203
-0.0576895 0.121754 0.000176797 -0.956393 0.183608 -0.227159
-0.218275 0.00995256 -0.119476 -0.902826 -0.0594256 0.42588
-0.0945191 -0.0021266 -0.115976 0.444454 -0.648245 -0.618255
-0.000661203 -0.256936 0.0660372 -0.842285 -0.359647 0.40151
-0.0479974 -0.00351065 -0.0870136 0.386356 -0.880342 -0.275184
-0.0129403 0.344527 0.123872 -0.648564 0.760716 0.025999
0.0714141 0.3006 -0.157731 -0.64617 0.743468 0.172396
-0.0108586 0.294324 0.250645 0.157149 0.56822 -0.807731
-0.0272257 0.322322 0.313278 -0.0127758 -0.0386532 0.999171
0.0951275 -0.47633 0.0788593 0.578277 -0.0789967 0.812007
0.0695436 0.00896452 0.077562 0.685144 -0.576931 0.444666
-0.0294808 -0.0921491 0.012569 -0.748064 -0.192175 -0.635192
0.080284 0.0151719 0.0557342 0.800756 -0.539788 0.259651
-0.119982 -0.0909424 -0.145181 -0.0560902 0.194648 0.979268
-0.00268261 0.38242 0.00612022 -0.240811 0.133972 -0.961281
0.07069 0.321115 -0.22157 -0.501589 -0.266918 -0.8229
-0.145083 -0.0793572 -0.0874963 0.707936 0.0408515 -0.705094
-0.0633387 0.0658192 -0.0281827 -0.884328 0.266066 0.383632
-0.088817 0.0895929 -0.106081 0.0448976 0.870507 -0.490104
-0.137541 -0.00830762 -0.152663 0.81419 -0.491866 -0.308482
-0.0175864 0.375903 0.0765362 -0.556153 0.0628866 0.828697
0.0101998 -0.285657 0.0777732 -0.562175 -0.18609 0.80581
0.0435373 0.0807834 -0.0845396 0.439682 -0.125237 -0.889379
-0.00404025 0.10154 -0.098478 -0.0228564 0.47141 -0.881618
0.0905417 0.167974 -0.0270362 0.762088 -0.0685654 -0.643833
-0.061966 0.00907766 -0.0314712 -0.663685 -0.60767 0.436188
0.0217549 -0.483329 0.0724935 0.0355304 -0.982763 -0.181426
-0.0108586 0.029857 0.114278 -0.540957 -0.135435 0.830074
-0.0460619 -0.0905803 0.0442849 -0.970133 -0.192354 -0.147788
0.0933173 0.379282 -0.207572 0.909834 0.382673 0.160508
0.00238587 0.28636 0.242922 -0.00351486 0.939327 -0.343004
-0.0635197 0.0869983 -0.0430865 -0.775885 0.54433 0.318915
-0.0173903 0.42152 -0.00866292 0.0225315 -0.210127 -0.977414
0.0808874 -0.36072 0.0394803 0.911424 0.0396817 -0.40955
-0.0487328 0.0800593 0.0743942 -0.833741 0.0289723 0.551395
0.0321332 -0.0905803 0.0172151 0.639188 0.094373 -0.763238
0.0561483 0.263913 -0.177281 -0.867917 -0.240273 -0.434729
-0.0239372 0.0203837 -0.0882203 0.453715 -0.536908 -0.711248
-0.0314117 0.281532 0.23182 -0.401778 0.825695 -0.395982
-0.0718013 0.415968 0.0539844 -0.789737 -0.0294836 0.612737
-0.0456121 -0.248006 -0.118028 -0.542437 0.839818 0.0216381
0.0563896 -0.23811 0.0250347 0.733197 0.161821 -0.660482
0.0692419 0.383385 -0.2375 -0.148694 -0.381502 -0.91233
-0.079042 -0.0767626 -0.121045 -0.73364 -0.492192 0.468529
0.0794392 0.354664 -0.0552147 0.647109 0.759588 -0.0653883
0.0416065 0.23133 0.171963 0.925226 -0.232032 0.300197
0.0805254 0.063647 0.0801264 0.765966 -0.126661 0.63028
-0.0830546 0.0763786 -0.118149 0.0879691 0.593986 -0.799651
-0.00835447 0.337527 -0.00570629 -0.757858 0.533996 -0.374833
-0.0326109 0.47317 0.0686619 -0.233479 0.648928 0.724141
0.0426926 0.442518 -0.237258 -0.380314 0.812536 0.441754
0.0861972 0.295772 0.0708342 0.973511 0.158022 0.165246
-0.0233036 0.358767 0.293004 0.887606 0.264149 0.377334
-0.0625694 0.472205 0.048931 -0.65171 0.658222 0.376853
-0.0248271 0.0938771 -0.0965472 0.085961 0.447861 -0.889961
-0.0609402 0.101661 -0.00974902 -0.932806 -0.125889 -0.337674
-0.0136342 0.324735 0.307244 0.398286 0.261663 0.879148
0.134951 0.28998 -0.167265 0.985743 0.0132123 0.167737
-0.155039 -0.0240864 -0.0887634 0.19607 -0.368337 -0.908782
-0.0678642 0.083378 0.0144848 -0.597929 -0.652785 -0.465137
-0.0255663 0.314116 0.0206431 -0.907237 -0.234355 -0.349283
-0.0168473 0.366973 0.0815444 -0.64712 0.24637 0.721482
0.0575964 0.316047 -0.175712 -0.737185 0.342638 0.582372
-0.0776241 0.0235968 -0.0427848 -0.530293 0.121432 0.839073
0.0814908 -0.489604 0.070442 -0.0512719 -0.92715 0.371165
0.0254356 -0.138791 0.083083 0.373598 0.0938221 0.922834
-0.129697 -0.0337407 -0.0902115 -0.299285 -0.571165 -0.764329
0.0662852 0.357077 -0.0765145 0.321756 0.859087 -0.398049
-0.0876404 0.0907997 -0.0825484 -0.425434 0.884165 0.193024
-0.0152634 -0.0625829 0.00084053 -0.090323 -0.101213 -0.990756
0.0429943 0.326184 -0.104874 -0.544456 0.590513 -0.595703
-0.144721 -0.0140399 -0.106684 0.243826 -0.924078 -0.294326
0.0812494 0.337045 0.0458838 0.859296 0.438745 0.262894
0.0837837 0.307599 0.0797946 0.943385 0.195201 0.26818
0.113712 0.275981 -0.10765 0.863901 -0.377089 0.333885
0.0478214 0.441311 -0.263808 0.211649 0.835393 -0.507271
-0.0538805 0.0922479 -0.108374 0.0809915 0.582553 -0.808748
0.0344261 0.318219 0.18041 0.778561 0.42121 0.465216
-0.165357 -0.0579065 -0.121769 0.784197 0.529068 -0.324224
-0.0210861 0.296255 0.24787 0.128982 0.637674 -0.759431
0.0198843 0.0026581 -0.0334322 -0.0229779 -0.999727 0.00413086
0.00455814 0.00805941 -0.00640019 0.00342904 -0.841768 -0.539829
0.0532519 -0.0235735 0.045733 0.883474 -0.446185 -0.142807
-0.0431637 0.482824 0.0510881 -0.334444 0.821099 0.462541
-0.0225493 -0.0812881 0.0826305 -0.546695 -0.201706 0.812674
0.0132168 0.361663 0.101426 -0.298446 0.924471 0.237241
0.0659836 0.00331901 0.0449184 0.638189 -0.765461 0.0823687
0.0683971 -0.22387 0.0681491 0.92895 0.27766 0.244862
-0.0285229 0.282015 0.183065 -0.986337 0.0736126 0.147378
-0.0545292 -0.0345854 0.051782 -0.991435 -0.115546 0.0608733
-0.128973 -0.110613 -0.132871 -0.346501 -0.521557 -0.77969
-0.0144035 0.32377 -0.0136107 -0.82967 0.454249 -0.324509
0.0484248 -0.161117 0.0766569 0.810378 0.166591 0.561725
0.134107 0.287325 -0.190797 0.988905 -0.00175855 -0.148541
-0.115517 0.0755942 -0.0832122 -0.42156 0.76882 0.480836
0.0804047 0.0970147 0.0883627 0.765554 -0.145405 0.626725
0.0438994 -0.330067 0.00601463 -0.168872 -0.236066 -0.956951
-0.136515 -0.00702541 -0.0779023 -0.185852 -0.602471 0.776201
-0.152445 -0.0673497 -0.103064 0.812148 0.0145818 -0.58327
0.0550621 -0.00770423 0.0585249 0.895172 -0.359206 0.26389
0.0233237 -0.313413 0.0184973 -0.514162 -0.278304 -0.811285
-0.039912 0.342596 0.311588 -0.0112275 -0.103809 0.994534
-0.0403645 0.311219 0.0679379 -0.902437 0.427174 0.0559409
-0.155703 -0.0102913 -0.0842379 -0.166551 -0.611049 0.773873
0.0231426 0.0323611 0.123088 0.259828 -0.218862 0.940526
-0.127826 0.0743271 -0.0943749 -0.377499 0.909487 0.174151
-0.0515198 0.171956 0.0634124 -0.974268 0.0784628 0.211294
0.0347881 0.270189 -0.106926 -0.881229 -0.080412 -0.4658
-0.0296619 -0.0853911 0.0768078 -0.610738 -0.173004 0.772702
0.0630269 0.341389 -0.102098 0.0410342 0.706543 -0.706479
-0.0513953 -0.168961 -0.119114 -0.457024 0.271911 0.846873
-0.135127 0.0705257 -0.0932888 -0.347856 0.791302 0.502829
0.0687592 0.0454849 -0.0598608 0.658721 -0.359292 -0.661057
-0.00189817 0.331011 0.188858 -0.308058 0.762928 0.568367
0.020005 -0.270452 0.00729684 -0.366791 0.02712 -0.929908
0.0981444 0.325942 -0.115735 0.302832 0.851666 -0.427736
0.0922312 -0.431196 0.0503188 0.895832 0.0182681 -0.444017
-0.187019 -0.0263642 -0.101374 -0.277256 -0.653448 0.704368
0.022841 -0.448574 0.0486745 -0.555134 0.413284 -0.721819
-0.137722 -0.107294 -0.0934095 0.622083 0.357582 -0.696525
-0.0366461 0.0608413 -0.115252 0.590243 0.0491935 -0.805725
-0.00627276 0.332941 0.295417 0.72657 0.430874 0.535205
0.0829389 0.313392 -0.223984 -0.402606 -0.294483 -0.866711
0.0658629 0.341148 -0.0977539 0.175756 0.736634 -0.653055
0.0412444 -0.0874427 0.0625978 0.982804 0.00452751 0.184598
0.0411841 0.0717928 0.117839 0.616776 -0.144472 0.773767
-0.0228058 -0.22918 -0.103426 -0.879338 0.276887 0.387425
-0.202587 -0.017796 -0.149404 -0.664345 -0.628995 -0.403746
-0.132835 -0.0196514 -0.112597 -0.160747 -0.928689 -0.334212
-0.0572068 0.128512 0.000493578 -0.969556 0.141695 -0.199708
0.0250735 0.364559 0.112046 -0.175159 0.975972 0.129604
-0.184002 -0.00392925 -0.0835139 -0.329757 -0.279739 0.901669
-0.0335613 0.398832 0.278039 0.465009 0.866608 -0.180988
-0.0600351 -0.139395 -0.0698772 0.295252 -0.0769394 -0.952317
0.0461922 -0.13312 0.0758122 0.670931 0.253074 0.696997
-0.018582 0.00885136 -0.0277905 0.214 -0.973583 -0.0796272
-0.133559 -0.140602 -0.115856 -0.181133 -0.599132 -0.779892
0.106833 0.163509 0.0195797 0.990747 -0.0900268 0.101563
-0.0369554 -0.46571 0.0687826 -0.454129 0.756353 -0.470847
-0.0630219 -0.257901 -0.125872 -0.554894 0.783947 0.278423
-0.00566937 -0.0697632 0.00224342 -0.0163972 -0.051903 -0.998518
0.0271854 0.407762 0.053381 0.861584 0.245548 0.444273
0.0248321 -0.00618444 0.099797 0.494855 -0.370864 0.785861
-0.0771715 0.431415 0.0304766 -0.984904 0.105312 0.137384
-0.0570634 0.366973 0.268144 -0.537153 0.0610762 -0.841271
-0.0409623 0.308806 0.0719203 -0.893115 0.448186 0.0384088
-0.0600804 0.40028 0.00378207 -0.592443 -0.206544 -0.778686
0.0467353 -0.338515 0.00765888 -0.187482 -0.278135 -0.942068
0.0936793 0.259569 -0.047612 0.930706 -0.365686 -0.00782748
-0.0727969 0.0795163 0.0300071 -0.965826 -0.177614 -0.188767
-0.0011741 -0.164375 0.0791006 -0.413671 -0.0363186 0.909702
0.0787151 -0.310034 0.0679982 0.884517 0.113846 0.452403
0.0351502 -0.259591 0.0829322 -0.10144 -0.275807 0.955846
0.105385 0.160009 0.0377682 0.984896 0.0390673 0.168681
-0.0749691 -0.260074 -0.0903925 -0.128663 0.79798 -0.58879
-0.017873 -0.147722 -0.0551544 -0.389034 -0.572229 -0.721946
0.00178248 -0.1581 0.00651243 -0.137787 -0.0724064 -0.987812
0.020367 0.356112 -0.0254976 -0.473498 0.804739 -0.358042
0.125901 0.268499 -0.155318 0.863223 -0.423457 0.274829
-0.197639 0.0271719 -0.0992021 -0.684715 0.354505 0.636782
0.0222376 -0.461607 0.0420372 -0.219695 -0.092493 -0.971174
-0.0760854 0.376144 0.278764 -0.637711 -0.12565 -0.759959
0.0680351 0.0112348 0.0814237 0.687372 -0.57739 0.440614
-0.0409453 -0.0602598 0.0742132 -0.725092 -0.21149 0.655373
-0.0529227 0.339941 0.30845 -0.433386 -0.371933 0.820879
-0.013061 -0.156531 0.0734891 -0.514541 -0.0930876 0.852398
0.0336417 -0.308586 0.0830529 -0.433911 -0.0220121 0.900687
0.087766 -0.445436 0.0411472 0.766177 -0.00565068 -0.642604
0.10804 0.294083 0.0107362 0.968002 0.250014 0.0215482
-0.0315399 0.311943 0.101185 -0.901447 0.4222 0.0956115
-0.0564827 -0.104519 -0.0987194 -0.757061 -0.639712 0.132768
0.12578 0.273568 -0.150491 0.906821 -0.340018 0.249125
-0.0496228 0.273568 0.274419 -0.852832 -0.38847 0.348954
-0.0498076 0.378558 0.0588266 -0.375122 -0.506123 0.77661
-0.181589 -0.053713 -0.132751 0.496301 0.856369 -0.142543
-0.0824814 0.0795163 -0.11658 0.0879691 0.593986 -0.799651
-0.0487856 0.397384 0.279488 0.0502492 0.935529 -0.349659
-0.0139208 -0.0368179 -6.45593e-05 0.0568168 -0.0782859 -0.995311
-0.024435 0.334148 0.0869749 -0.820176 0.501812 0.274766
0.0221169 0.307358 0.212028 0.286485 0.646818 0.70679
-0.0420767 0.248708 0.0222535 -0.975801 0.0822373 -0.202608
-0.106587 0.0848865 -0.108736 -0.252029 0.931361 -0.262771
0.0514418 -0.185735 0.0680284 0.923209 -0.0598632 0.379608
0.0454079 -0.375925 0.0884834 -0.329584 0.0268966 0.943743
0.0656215 -0.358547 0.0207789 0.353311 0.132023 -0.926143
0.0178328 -0.188994 0.00590903 -0.0610275 -0.0211838 -0.997911
-0.203552 -0.0001109 -0.0977539 -0.750766 -0.177349 0.636316
-0.0280553 0.408728 0.0739115 -0.202788 -0.122548 0.971524
-0.0860112 -0.240403 -0.110667 0.979098 -0.136115 -0.151131
0.0264613 0.0938771 0.130208 0.170751 -0.0364016 0.984642
0.0362966 0.252569 0.237491 0.998169 -0.027941 0.0536465
-0.0523645 0.33439 0.25318 -0.41363 0.108641 -0.90394
-0.0914418 0.00933411 -0.129251 0.545264 -0.673374 -0.499253
-0.027467 0.436001 -0.0115894 -0.0812196 -0.149988 -0.985346
-0.0543783 0.107152 -0.0760921 -0.407405 0.912875 -0.0260944
0.0178328 0.0924289 0.127493 -0.00425132 -0.0430727 0.999063
0.0878867 0.325459 0.0427613 0.883305 0.365693 0.293326
0.0979031 0.22783 0.0458989 0.948904 0.0252178 0.314557
0.00947575 0.208401 0.189099 -0.105401 -0.994369 -0.0109784
-0.0380792 -0.138671 -0.113804 -0.753982 0.0431084 0.65548
-0.00316532 -0.130344 0.00516988 -0.0632426 -0.0144392 -0.997894
0.0921105 0.3397 -0.0630588 0.805598 0.592012 -0.0230784
-0.0719522 -0.197803 -0.0787471 0.958946 0.12862 -0.252744
-0.138325 -0.00364265 -0.157852 0.552289 -0.120607 -0.824882
0.0157813 0.234588 -0.0772386 -0.438674 -0.0764438 -0.895389
0.0329176 -0.411887 0.0808203 -0.596835 0.247577 0.763213
-0.214293 0.0109482 -0.111632 -0.866307 -0.0289897 0.49867
-0.0259736 -0.232197 -0.105115 -0.744926 0.526752 0.409411
-0.0570257 0.106548 -0.0821261 -0.29822 0.92262 -0.244617
-0.120163 -0.118457 -0.131906 -0.231731 -0.520823 -0.821611
-0.058685 0.00793496 0.0278542 -0.998846 -0.0477319 0.00531145
0.00603646 0.344285 -0.0306868 -0.622421 0.70669 -0.336424
0.0448648 0.151682 -0.0723511 0.345036 0.108664 -0.932278
-0.038132 -0.147722 -0.0934095 -0.812658 -0.191582 0.550348
-0.208983 0.0397527 -0.128648 -0.70236 0.693565 0.160183
0.11335 0.274774 0.0154049 0.96763 0.23433 0.093711
0.104782 0.294566 -0.0134599 0.950382 0.180753 -0.253186
0.0896969 0.257397 0.0801264 0.943457 0.0580286 0.326376
-0.0198491 0.0485622 -0.100047 0.414527 -0.194653 -0.888976
0.0390119 0.367456 0.00171545 0.0364081 0.960854 -0.274654
-0.0418919 0.345733 0.311829 0.0798783 -0.112502 0.990436
0.0365379 0.260776 0.244732 0.998403 0.0555394 0.0103018
0.090059 0.159164 0.0838675 0.859278 0.0132148 0.511339
-0.0334707 -0.181994 0.0547537 -0.948073 -0.255751 0.189076
0.106592 0.139252 0.0396312 0.990897 0.0332277 0.130458
0.0650181 -0.407784 0.0332955 -0.316549 -0.621228 -0.716849
-0.008083 -0.201062 -0.0667395 -0.681351 0.69044 -0.243008
-0.168917 -0.0864169 -0.112115 0.943673 -0.0616921 -0.325077
-0.0390974 0.47679 -0.00305136 -0.195913 0.641408 -0.741764
-0.0983506 0.0035811 -0.12901 0.473281 -0.691962 -0.545154
0.0729226 0.419106 -0.202141 0.286652 0.745295 0.601969
0.105627 0.132736 0.0160913 0.998204 -0.00255715 -0.0598511
-0.152566 0.0290726 -0.0737992 -0.35242 0.110045 0.929349
0.0215135 -0.356616 0.0244049 -0.578359 0.138634 -0.803917
-0.122577 -0.105303 -0.144336 -0.364895 -0.51214 -0.777538
0.0254959 0.162664 -0.0741613 -0.2994 0.0983838 -0.949042
0.0388912 0.101661 0.12701 0.292061 -0.140722 0.94599
-0.168797 0.0024573 -0.169316 0.338471 0.0614462 -0.938969
0.0682765 -0.248488 0.0794325 0.888011 0.118549 0.444277
0.119263 0.217573 0.00907685 0.983153 -0.0414668 0.178021
0.0423909 0.163509 -0.074825 0.297302 0.0537659 -0.953268
-0.170004 -0.0337105 -0.0911166 0.380409 -0.20495 -0.901823
0.0782324 -0.375442 0.0748166 0.73757 -0.227155 0.635918
0.0610961 0.436242 -0.229776 0.343135 0.930659 -0.127012
-0.0693123 0.390867 0.274902 -0.248356 0.298265 -0.921606
0.0574757 0.186196 -0.0698168 0.434059 -0.222264 -0.873036
-0.0499019 0.216969 0.0725538 -0.935671 -0.0864799 0.342112
-0.0091691 -0.139274 0.0773206 -0.476297 -0.157302 0.865099
-0.0535713 0.333183 0.293969 -0.801901 -0.2205 0.555279
0.0923519 0.14058 0.0772905 0.881504 -0.025128 0.471507
0.0494506 -0.292898 0.00975567 0.17826 0.0917104 -0.9797
-0.117508 -0.116406 -0.136854 -0.221805 -0.607485 -0.762735
0.0205481 -0.478019 0.0536375 -0.127223 -0.816696 -0.562869
0.00929477 0.0799386 -0.103788 0.283542 0.00270144 -0.958956
0.0673714 -0.40175 0.0175244 0.0319995 -0.685309 -0.727549
-0.0476524 0.272844 0.0969611 -0.971291 0.0604801 0.23008
0.0452872 0.364559 -0.0474913 -0.238369 0.952555 -0.189259
-0.110026 -0.083762 -0.0744026 -0.0227683 -0.170062 -0.98517
0.0667679 0.0431015 -0.0595591 0.647894 -0.385735 -0.656842
0.0664059 -0.324516 0.0136702 0.522811 0.00723606 -0.852418
-0.103238 -0.166427 -0.112477 0.260628 0.910572 0.320828
-0.0510936 0.481618 0.04786 -0.453644 0.779676 0.431639
-0.077262 0.437691 0.0142359 -0.828117 -0.122927 -0.54691
-0.145264 -0.0929939 -0.0925044 0.617776 0.154864 -0.770954
0.0780514 0.296979 0.0975645 0.8968 0.0951079 0.432093
-0.0184161 -0.478019 0.114278 0.0501298 0.538791 0.840947
-0.0479277 0.39304 0.261386 -0.0252178 0.60809 -0.793467
0.0185569 0.411624 0.00612022 0.645797 -0.269079 -0.714523
-0.00189817 0.041412 -0.0922631 0.287498 -0.370159 -0.883361
-0.0301144 -0.128775 -0.0623348 -0.368388 -0.68511 -0.628422
-0.0448229 0.206712 -0.00342848 -0.940524 0.267396 -0.209558
0.0580791 0.239536 -0.165696 -0.825267 -0.426157 -0.370573
-0.0356958 0.202971 0.0961163 -0.869195 0.0272314 0.493719
0.0377447 0.31315 0.17498 0.825235 0.34696 0.445652
0.0434166 0.0932737 0.120795 0.469396 -0.112457 0.875797
0.0769653 -0.333929 0.0714074 0.677659 0.060533 0.73288
-0.0433825 0.0876017 -0.110184 0.309128 0.483577 -0.818898
-0.0387693 0.31315 0.0732477 -0.896932 0.436818 0.0685822
-0.155522 -0.0966143 -0.10234 0.764028 0.073841 -0.640944
-0.0384186 -0.143739 -0.0967885 -0.89257 -0.163782 0.420111
-0.138627 -0.013806 -0.116338 -0.81868 -0.523848 -0.235258
0.00196353 -0.183443 -0.0374749 -0.331969 0.543988 -0.770632
-0.110449 -0.130223 -0.0830915 0.450399 0.535893 -0.714114
0.0285128 0.291428 0.21939 0.672462 0.620605 0.403292
0.0518038 0.361904 0.0880912 0.610358 0.726651 0.315345
-0.155039 -0.0804433 -0.136492 -0.631554 -0.571628 -0.523814
0.0531916 0.253535 -0.131423 -0.901478 -0.153606 -0.404651
0.0979031 0.32015 -0.0162053 0.921327 0.386208 -0.0447281
0.00274797 0.150717 -0.0628778 -0.428294 0.316453 -0.846417
-0.0266524 -0.202389 0.046804 -0.947027 -0.320875 0.0134114
-0.0228661 0.0965923 -0.0940129 -0.129554 0.481863 -0.866616
0.0642337 0.298186 -0.14868 -0.494776 0.833472 -0.246012
0.0482438 -0.139516 0.0725237 0.691269 0.256853 0.675406
0.101644 0.315805 -0.00522357 0.939882 0.334585 -0.0683734
-0.111595 -0.07097 -0.14337 -0.360935 -0.160614 0.918656
-0.177606 0.0529669 -0.108977 -0.540962 0.777739 0.320129
-0.00563925 -0.160514 -0.0762128 -0.756218 -0.484773 0.439465
-0.0212672 0.299393 -0.0207006 -0.885324 0.303315 -0.352422
-0.107914 -0.106691 -0.0700582 0.421665 0.133017 -0.896942
-0.0430581 -0.118457 -0.0768162 -0.595823 -0.685033 -0.419196
-0.0652092 0.47317 0.0440737 -0.693487 0.661939 0.284452
0.0518038 0.110651 -0.0772989 0.489024 0.268999 -0.829756
0.0533123 0.330769 -0.188625 -0.957088 -0.0615822 0.283178
0.0109541 -0.00125547 0.108365 0.165371 -0.325473 0.930978
0.10092 -0.457504 0.0626582 0.996795 0.0730086 -0.0327041
0.057174 0.230123 -0.130337 -0.720519 -0.68908 -0.0776036
0.0977824 0.22771 0.0461101 0.948904 0.0252178 0.314557
-0.0132722 -0.0966143 0.00287698 -0.232226 -0.166444 -0.958315
-0.0970835 -0.0776073 -0.0789281 -0.213531 -0.51366 -0.830998
0.0184362 0.0308073 -0.0754284 0.313094 -0.491965 -0.812369
-0.219844 0.00551385 -0.122855 -0.932599 -0.117529 0.341243
-0.113526 -0.143257 -0.0955214 0.638407 0.539936 -0.548549
-0.141765 -0.109406 -0.128527 -0.336004 -0.408788 -0.848524
-0.0690257 0.467378 0.0445866 -0.728441 0.646536 0.226638
-0.0235148 0.331735 0.0976248 -0.799884 0.59012 0.109287
-0.165961 -0.0172379 -0.0926854 0.114531 -0.953178 0.279884
-0.0452987 0.105402 -0.0524994 -0.747737 0.663783 -0.0167999
-0.0125179 0.425381 -0.0105033 0.123897 -0.207642 -0.970327
0.105747 0.0911015 0.0254175 0.99293 -0.11236 0.0382735
-0.0950018 -0.0507865 -0.11477 -0.709345 -0.649957 0.272738
-0.0346021 -0.241006 -0.113804 -0.64537 0.739591 0.191057
-0.0294054 0.0521222 0.101306 -0.662454 -0.0309858 0.748461
0.106713 0.251121 -0.178247 0.27904 -0.952275 -0.12373
-0.0373287 -0.191407 -0.0536459 0.11515 0.324198 -0.938955
0.0212721 0.0938167 -0.0966678 0.402513 0.266487 -0.875767
-0.0309591 0.290463 0.00192664 -0.92782 0.256128 -0.271198
-0.0402061 -0.219163 -0.119114 -0.291957 -0.0818255 0.952925
0.0053727 -0.0450241 0.105167 0.28068 -0.0140063 0.959699
0.0595876 0.422726 -0.202382 -0.0593675 0.708966 0.702739
-0.0511275 0.0956269 0.0716487 -0.874602 0.0777466 0.478567
-0.0713488 0.466171 0.0156237 -0.846713 0.42835 -0.315585
0.0425719 0.0882051 0.121218 0.550166 -0.178709 0.815708
-0.0218404 -0.46402 0.0989523 -0.0217432 0.714109 0.699697
0.0717158 -0.251385 0.0486595 0.97591 0.0830106 -0.201765
0.0202463 0.330045 0.189582 0.464046 0.696526 0.547277
0.0837837 0.121392 -0.0491204 0.69616 0.231152 -0.679654
0.0979031 -0.447125 0.0708342 0.992613 0.108266 0.0547594
-0.0449838 0.319425 0.299279 -0.609046 -0.278628 0.742583
-0.0269692 0.0478683 -0.105719 0.555353 -0.181146 -0.811646
-0.0236505 0.284187 0.195013 -0.879485 0.435411 0.192152
-0.0400779 0.338975 0.0411849 -0.987324 0.0946009 0.127442
-0.0664914 0.0984025 -0.00630968 -0.914169 -0.200181 -0.352453
0.0475197 0.306634 -0.126717 -0.627733 0.542362 -0.558386
0.00917409 0.294083 0.255111 0.0532716 0.787846 -0.613565
-0.0509616 0.396901 0.0658863 -0.404422 -0.198416 0.89279
-0.0273765 0.0393906 -0.106201 0.556882 -0.332196 -0.761268
0.0664059 -0.215302 0.0677267 0.789927 0.519211 0.326244
0.00534251 0.359732 0.0944872 -0.642148 0.596498 0.481493
0.0591652 -0.307862 0.0117469 0.335631 0.075684 -0.938948
-0.0284173 0.290945 -0.0126755 -0.902672 0.250409 -0.34997
-0.022308 0.295772 0.196461 -0.855366 0.380636 0.351377
-0.0150521 0.0977388 -0.101374 -0.0846461 0.409377 -0.90843
-0.0197436 0.0693189 -0.103426 0.416864 0.0842658 -0.905055
-0.074592 -0.262487 -0.101254 -0.259626 0.850346 -0.457718
0.0620012 -0.208906 0.0454766 0.94178 0.263423 -0.208946
-0.0235148 0.224451 0.129363 -0.845825 -0.24321 0.474793
-0.0317812 0.387488 0.0682094 -0.351534 -0.296605 0.887946
-0.0257021 0.255707 -0.0322858 -0.810296 0.0385013 -0.584754
-0.00760029 0.236881 0.2177 -0.744548 -0.419942 -0.518938
-0.058323 0.118133 -0.00125626 -0.944628 0.236905 -0.227053
-0.0683016 -0.112182 -0.0706616 -0.371926 -0.109404 -0.921793
0.0606737 -0.17596 0.0560058 0.997927 0.0643219 -0.00224309
-0.0347228 0.0193278 0.085557 -0.77159 -0.0168799 0.635896
0.0505367 0.385557 -0.210468 -0.925531 -0.373578 0.0619048
0.101161 0.159044 -0.0239589 0.861711 -0.0352336 -0.506175
-0.0108888 0.233382 0.260541 -0.307347 -0.8384 0.450136
0.0780514 0.296979 0.0975645 0.8968 0.0951079 0.432093
0.00682083 0.221193 0.248111 0.0917837 -0.915858 0.390871
-0.0140566 0.00285611 -0.0779627 0.228159 -0.918324 -0.323457
-0.200897 -0.0160009 -0.161955 -0.580762 -0.429836 -0.691344
-0.0383658 0.268982 0.220234 -0.728282 0.613643 -0.305037
-0.00425142 0.490789 0.0391258 0.293923 0.933174 0.206873
-0.00141546 0.172801 -0.0591368 -0.342529 0.0624323 -0.937431
0.060734 0.299152 -0.154956 -0.665985 0.737048 -0.114997
-0.0392935 0.255949 -0.000577445 -0.962878 0.11289 -0.245196
-0.0750446 0.0174724 -0.116942 0.438786 -0.715276 -0.543919
0.0572344 0.235674 0.125743 0.895065 -0.118182 0.429991
-0.0151125 -0.208544 -0.0628778 -0.60045 0.682759 -0.416294
-0.0244199 0.0117477 -0.0928061 0.431362 -0.560074 -0.707279
0.063208 -0.206854 0.0456123 0.94178 0.263423 -0.208946
-0.017511 0.353216 0.288901 0.898638 0.330824 0.288107
0.0768447 -0.361202 0.0262641 0.719795 -0.0431642 -0.692844
-0.0422727 -0.230266 -0.0747647 -0.269058 0.731543 -0.626461
0.0458302 0.442276 -0.26598 -0.19314 0.714561 -0.672383
0.00286865 0.219745 0.181134 -0.763281 -0.61019 -0.212296
0.0294179 0.23664 0.264403 0.781964 -0.556859 0.280072
-0.171934 -0.0361844 -0.152904 -0.21869 -0.387182 -0.895692
0.077086 0.340182 0.0566393 0.869152 0.422182 0.25756
-0.0246763 0.148544 -0.0455001 -0.69376 0.253451 -0.674136
0.0715951 0.435518 -0.230259 0.689459 0.706963 -0.157636
-0.21019 -0.00622214 -0.111873 -0.842117 -0.229249 0.488143
-0.0535109 0.266085 0.263437 -0.948037 -0.258093 0.186045
-0.109242 -0.122379 -0.0756094 0.460787 0.378015 -0.802982
-0.0610911 0.124891 0.0140398 -0.977065 0.193038 -0.089891
-0.0243897 0.222762 0.232423 -0.725483 -0.476431 -0.496676
0.0672507 0.319908 -0.119355 -0.129972 0.690913 -0.711159
0.114919 0.189093 -0.00857241 0.956214 -0.109466 -0.271426
0.0153287 0.476066 0.0462459 0.661524 0.677277 0.321998
-0.138506 -0.0295471 -0.14506 -0.647566 -0.311037 0.695639
-0.0215839 0.433829 -0.011167 -0.0873055 -0.159767 -0.983286
-0.00666498 0.349595 0.099616 -0.692039 0.682146 0.236134
-0.0268937 -0.043757 0.093039 -0.588669 -0.242245 0.771224
0.0238064 0.225417 0.24618 0.614996 -0.760676 0.207732
-0.0381923 -0.0617985 0.00876007 -0.71606 -0.272707 -0.642564
0.00175236 0.307599 -0.0542493 -0.728032 0.224985 -0.647573
-0.0541822 0.174128 0.0492779 -0.986774 0.0867337 0.136946
-0.0704286 0.464964 0.0110077 -0.779548 0.38738 -0.49218
0.0146046 -0.372305 0.0320133 -0.926552 -0.0106158 -0.376016
-0.0388825 -0.00822464 -0.0103524 -0.679588 -0.428332 -0.595559
-0.0471866 0.10335 -0.0966678 0.102127 0.800751 -0.590227
-0.206931 0.000686237 -0.102943 -0.81222 -0.120029 0.57087
-0.0699006 -0.0818311 -0.10777 -0.786765 -0.583954 0.199997
-0.0515612 0.0818695 0.00612022 -0.549429 -0.708608 -0.442722
0.102006 -0.466675 0.0655243 0.971616 0.0709965 0.22566
0.0876454 0.263672 0.0865827 0.926969 0.076009 0.367357
0.0482438 0.105885 -0.0807383 0.442045 0.230609 -0.866843
0.000123172 0.151441 0.129544 -0.392255 -0.294656 0.871386
0.0950068 0.333907 -0.0574473 0.841363 0.540469 -0.00082881
-0.149971 -0.0591435 -0.154352 -0.160787 -0.30884 -0.937425
-0.0120654 0.225658 0.224217 -0.526964 -0.782718 -0.331153
0.102006 0.262948 0.0386431 0.864698 0.0828397 0.495414
-0.185088 -0.00886576 -0.084962 -0.34171 -0.575552 0.742949
-0.0403306 0.046209 -0.117545 0.619777 -0.135004 -0.773079
-0.0676681 0.459413 0.00409885 -0.703907 0.328791 -0.629612
0.118177 0.202246 0.00516988 0.995175 -0.0629117 -0.0752876
0.00673034 0.0716119 0.123691 -0.215048 -0.0260582 0.976256
0.0383482 -0.118819 0.0192516 0.793728 -0.0168424 -0.608039
-0.015731 -0.138912 -0.0663172 -0.701266 -0.701963 0.124394
-0.089179 -0.0550405 -0.103547 -0.728498 -0.651102 -0.212971
-0.0532093 -0.0161668 0.0640158 -0.9465 -0.0444258 0.319632
0.0730433 0.293842 0.104805 0.862426 0.0798957 0.499838
0.0379258 -0.0996312 0.0824495 0.804655 -0.099738 0.585305
0.00627782 0.119159 -0.0845396 -0.0507253 0.675763 -0.735371
0.0705693 0.0822919 0.0935821 0.63584 -0.176482 0.751373
-0.0549138 -0.0278425 0.0345853 -0.988643 -0.123583 -0.0855164
-0.0516781 0.404625 0.302658 0.578959 0.806165 0.122083
-0.0526587 0.274533 0.248232 -0.824558 0.208441 -0.525982
-0.0312609 -0.164255 -0.101857 -0.559453 -0.330376 0.760174
-0.0268937 0.378317 0.303623 0.769203 0.294188 0.567256
0.00552356 -0.477295 0.0525664 -0.0980631 -0.810747 -0.577125
0.040279 0.38966 0.0628694 0.680815 0.6253 0.381432
0.014846 -0.372546 0.0407701 -0.978602 -0.205653 -0.00671697
-0.0104966 -0.125275 0.0808203 -0.503133 -0.162941 0.848709
0.0247114 0.3006 0.215528 0.483153 0.718786 0.499911
0.0132771 -0.00138747 0.00688955 0.181492 -0.729948 -0.658966
-0.0605631 0.0839814 -0.112839 0.0739269 0.53441 -0.841986
0.0694832 0.211056 -0.0698168 0.475869 -0.350101 -0.806832
0.0563293 0.349112 -0.0937715 -0.0105114 0.784505 -0.620033
0.10985 0.315805 -0.165455 0.315746 0.898924 0.30371
0.0386498 0.392798 0.0509825 0.82631 0.562844 -0.0204612
0.0150572 0.209125 0.197185 0.21159 -0.973483 0.0869527
-0.0236354 0.373248 0.012486 -0.30618 -0.0849889 -0.948172
-0.0569277 0.157113 0.0255797 -0.995545 0.0651802 0.0681269
-0.0409679 0.327632 0.0416148 -0.478351 -0.874212 -0.083265
0.112143 0.316047 -0.165575 0.341462 0.892119 0.295852
-0.017511 0.431898 -0.0124643 -0.000471431 -0.152332 -0.988329
-0.171331 0.0458168 -0.0885824 -0.46844 0.594262 0.653771
-0.0409453 0.0381235 0.0883627 -0.816634 -0.0933467 0.569558
0.0244098 -0.0877444 0.0118072 0.568106 0.0671129 -0.820215
0.083663 0.310254 0.0724332 0.947434 0.20637 0.244498
-0.015565 0.300358 -0.0317729 -0.834366 0.289556 -0.469032
-0.0416543 0.110048 -0.0836949 -0.214116 0.912068 -0.349694
-0.167771 0.0575528 -0.105477 -0.528601 0.760019 0.37809
-0.192812 0.0134523 -0.168472 -0.123265 0.044734 -0.991365
-0.0245406 0.284911 0.307485 -0.368242 -0.234517 0.899666
0.073707 0.344285 0.0606368 0.864936 0.439479 0.242373
-0.0687693 0.470032 0.0113848 -0.712978 0.480946 -0.510248
-0.198604 0.0421662 -0.117425 -0.614583 0.697465 0.368551
-0.123482 -0.0233623 -0.0957024 -0.733751 -0.62554 0.265159
0.0638717 0.36287 -0.0182267 0.451396 0.892291 0.00769333
-0.0578855 0.00571373 0.0335067 -0.999436 -0.0245948 0.0228837
0.0939207 0.311702 -0.150732 -0.0714559 0.992785 0.0962953
-0.0480842 0.466895 -0.00630968 -0.435678 0.39797 -0.807344
0.0347881 -0.473675 0.103236 0.358005 0.0306385 0.933217
0.123608 0.258121 -0.191883 0.537572 -0.75716 -0.371114
0.0358742 0.00900222 -0.0389231 0.306158 -0.940447 -0.14774
0.0657422 0.243519 0.115003 0.834557 -0.0758356 0.545678
0.0916278 0.247622 -0.12551 0.552789 -0.8255 0.1139
0.077448 -0.376166 0.0260954 0.820664 -0.097669 -0.563002
-0.194381 0.00902486 -0.0890047 -0.601846 0.0685409 0.795665
0.106954 0.317012 -0.16642 0.293755 0.913431 0.281694
-0.0332218 0.287084 0.240388 -0.140081 0.825634 -0.54654
-0.0299409 -0.160393 -0.0485774 -0.031737 -0.202088 -0.978853
-0.0111301 0.279119 -0.051353 -0.756366 0.12209 -0.642655
-0.146471 -0.0884684 -0.140836 -0.559783 -0.459719 -0.689421
-0.0389277 0.0639487 0.089841 -0.784996 0.0439199 0.617942
-0.00711757 0.000251134 -0.0648087 0.0597602 -0.99377 -0.0940715
0.0419685 -0.0786331 0.0326431 0.975729 0.0565638 -0.211552
0.0829389 0.179076 0.0952113 0.671363 -0.0100035 0.741061
0.087404 0.160371 0.0889058 0.81585 -0.00169947 0.578261
-0.0848949 -0.172581 -0.09528 0.868887 0.409854 -0.277586
-0.0185519 -0.159428 -0.0939526 -0.506687 -0.393148 0.76727
0.0460113 -0.330067 0.00658785 -0.126149 -0.17468 -0.976511
0.110816 0.309288 -0.125993 0.660209 0.749569 -0.0476419
0.0590446 0.212504 -0.0733165 0.41656 -0.360721 -0.834481
0.0330986 0.281532 -0.106081 -0.877474 -0.0242212 -0.479012
0.037081 -0.390165 0.0156614 -0.281295 -0.109385 -0.953367
0.0317712 -0.39282 0.0657355 -0.782148 -0.233086 0.577855
-0.0709867 -0.0120788 -0.0757301 0.194691 -0.962981 0.186448
-0.152686 -0.00150437 -0.0772989 -0.114015 -0.592609 0.79738
0.0696643 0.232899 -0.147353 0.165545 -0.835684 -0.523667
-0.108276 -0.0195911 -0.106684 0.364799 -0.922118 -0.128915
-0.040983 0.113849 0.0895997 -0.886915 -0.115065 0.447373
0.00102829 0.331976 -0.0382594 -0.791112 0.444115 -0.420599
0.0422099 0.255224 0.181979 0.979092 -0.0341569 0.20053
0.0512608 0.344044 -0.0957024 -0.245097 0.686863 -0.684212
-0.0423689 0.269947 0.0266733 -0.949889 0.0898696 -0.29939
0.0322539 0.227468 0.20877 0.790728 -0.563704 0.238718
-0.0915021 -0.260315 -0.0961248 0.520057 0.539234 -0.662395
-0.00847515 -0.116104 0.0856776 -0.469115 -0.175413 0.865541
-0.0441596 -0.00171932 -0.0178345 -0.279342 -0.897448 -0.341402
-0.0714544 0.453137 0.00782481 -0.857099 0.166863 -0.487379
0.00283846 0.293118 0.307726 0.43709 0.134984 0.889231
-0.0225795 -0.219525 -0.0789281 -0.585986 0.769778 -0.253106
0.0175914 0.413796 -0.247154 -0.871838 -0.483362 0.0791215
0.0353915 0.272844 0.252094 0.960572 0.275857 -0.0346995
0.083663 0.310254 0.0724332 0.947434 0.20637 0.244498
0.0828182 0.344768 0.0200926 0.740539 0.657333 0.139694
-0.0471207 -0.136257 -0.064869 0.163219 -0.608484 -0.7766
0.0992305 0.188248 0.0611195 0.964905 0.0776422 0.25086
0.0440803 -0.102709 0.0477544 0.999395 0.00937735 0.0334793
-0.170486 -0.0282196 -0.159903 -0.0780562 -0.133131 -0.98802
-0.0424406 0.111315 0.0824495 -0.922072 -0.0193419 0.386534
0.0452872 0.0921272 -0.0858068 0.450614 0.0182651 -0.892532
-0.0554493 0.029857 0.0418788 -0.979932 0.0391909 0.195441
0.10273 0.0725773 0.00995177 0.97908 -0.192926 -0.0646757
-0.0186424 -0.470296 0.0544973 -0.425107 0.35167 -0.834034
0.0686989 0.437691 -0.223501 0.557722 0.814104 0.161806
-0.0488648 0.294083 0.250163 -0.432877 0.207127 -0.877335
0.00244624 -0.239679 0.0134062 -0.601955 -0.0815821 -0.794352
-0.125413 -0.0341027 -0.0922631 -0.354621 -0.667589 -0.654652
0.0608547 -0.387269 0.078799 0.124369 -0.138156 0.982571
0.0550018 -0.446643 0.0953923 -0.0296914 -0.111704 0.993298
-0.0332897 0.0266892 -0.0988401 0.502956 -0.389596 -0.771524
-0.139231 -0.0398349 -0.0838156 -0.15356 -0.447027 -0.881241
-0.0732796 0.0713705 -0.0491808 -0.698193 0.367305 0.614502
0.00757509 -0.0340122 0.00212274 0.428821 -0.0972097 -0.898144
0.0268837 0.424175 -0.238948 -0.854997 0.0286683 0.51784
0.0263406 0.426588 0.0567449 0.855509 0.0458275 0.515755
-0.0188083 0.357801 0.0074326 -0.576017 0.0873322 -0.812759
-0.018582 -0.216146 -0.107408 -0.886746 0.149766 0.437323
0.105264 0.102626 0.0418411 0.98125 -0.0681496 0.18029
-0.050626 0.108177 -0.0751267 -0.375101 0.926267 -0.0364553
0.0366586 -0.278658 0.0814539 -0.15368 -0.116627 0.981214
0.0158114 -0.326688 0.0307915 -0.667415 -0.204226 -0.716135
0.101403 0.0733617 0.0482823 0.963693 -0.116837 0.240092
0.0931966 -0.439402 0.0443301 0.777907 0.0304989 -0.627639
0.0871627 0.244967 -0.166541 0.165026 -0.969742 -0.179907
0.0227806 -0.297725 0.00841312 -0.263977 -0.217988 -0.939573
0.107437 0.305668 -0.0664378 0.957904 0.191218 0.214138
-0.130723 -0.0408305 -0.14506 -0.451249 -0.301793 0.839819
0.083663 0.315805 0.0650114 0.93938 0.241971 0.242932
-0.0469603 0.34163 0.0588568 -0.887786 0.371294 0.271986
0.102972 0.166164 0.0539391 0.968608 0.0361049 0.245956
0.0336417 -0.481881 0.0735796 0.0228994 -0.989522 -0.142553
0.0546398 0.391591 -0.210347 -0.879795 -0.461579 0.113606
-0.0440047 0.335114 0.027295 -0.806257 -0.36139 -0.468345
-0.053247 0.156147 0.0658863 -0.951511 0.00514372 0.30757
-0.0127894 -0.143981 -0.0596798 -0.512917 -0.718087 -0.470391
-0.059839 0.130925 0.0143943 -0.978135 0.180898 -0.10261
-0.0082338 -0.158462 -0.0524994 -0.288116 -0.607721 -0.740044
-0.0653148 0.0912221 -0.0515944 -0.722484 0.582695 0.372133
0.0289955 0.417175 0.0493232 0.949589 0.181275 0.255775
-0.0297222 0.31484 0.125019 -0.930803 0.358433 0.0716284
-0.0458431 0.291187 0.0760535 -0.949538 0.293672 0.110155
-0.191605 -0.00623346 -0.168834 -0.124497 -0.202186 -0.971402
-0.14092 -0.0139946 -0.119838 0.195151 -0.968441 0.155042
-0.0455226 -0.483812 0.102814 -0.540271 0.373217 0.754199
0.0912658 -0.377373 0.0570315 0.993322 0.082604 0.0805537
0.105385 0.193196 -0.0152097 0.816732 -0.178853 -0.548599
0.0325556 -0.304725 0.0812427 -0.442144 -0.00403918 0.896935
-0.0233639 -0.0933559 0.0794023 -0.545206 -0.195324 0.815229
-0.0452793 0.304944 0.250283 -0.288124 0.125803 -0.949294
-0.0874292 -0.0171172 -0.0923234 0.304328 -0.924858 -0.228084
0.0505367 0.0153002 -0.0216962 0.35724 -0.899369 -0.252021
-0.0483218 0.363594 0.262955 -0.391514 -0.0479439 -0.918922
0.00841983 0.318943 0.273936 0.79118 0.577677 -0.200807
0.00558387 -0.298449 0.0212465 -0.701108 -0.273101 -0.658683
-0.0648623 -0.222784 -0.0709029 0.252687 0.236287 -0.938253
-0.0140415 0.356595 0.0806695 -0.628348 0.378286 0.679764
0.0883694 0.281532 0.0709247 0.968593 0.129166 0.212471
0.101885 0.0760769 0.0481617 0.963293 -0.113952 0.243065
-0.0379057 -0.219646 -0.0637226 -0.142845 0.652081 -0.744571
-0.0314192 0.266568 -0.0139124 -0.912939 0.146608 -0.380852
-0.00793213 0.34863 0.283349 0.859783 0.460707 0.220278
-0.114009 -0.00959738 -0.126958 0.427439 -0.549978 -0.71751
-0.013061 0.346458 0.00720633 -0.672112 0.123239 -0.730122
0.0553035 -0.160996 0.0670026 0.934501 0.194938 0.297837
0.040822 -0.00946161 0.0852854 0.637419 -0.522389 0.566397
0.0608547 0.354664 0.0843803 0.718329 0.643493 0.264424
0.0863179 0.252087 -0.0762128 0.809591 -0.586177 -0.0309802
-0.042154 0.291669 0.0942458 -0.935569 0.307272 0.174053
0.0477008 -0.177409 0.0836563 0.719411 0.106163 0.686423
-0.142911 -0.0153372 -0.122734 0.157795 -0.98678 0.036966
0.0251941 0.296979 0.218907 0.519879 0.709978 0.475033
-0.0640477 0.0276546 -0.0318936 -0.726471 -0.132498 0.674302
-0.04756 -0.472951 0.101487 -0.562579 0.622623 0.543917
-0.0483633 0.290221 0.249921 -0.579301 0.154114 -0.800412
0.111178 0.262224 -0.00709409 0.958862 0.129895 -0.252412
0.0766033 0.353216 0.00498886 0.659895 0.749489 0.0529673
0.0680955 -0.414301 0.0772301 0.295278 0.43219 0.85207
0.0458302 -0.0149299 0.0752993 0.827791 -0.398097 0.395324
0.0643544 -0.288554 0.0846519 0.453568 -0.0690638 0.888542
-0.0210258 0.333424 0.116511 -0.798565 0.598808 0.0610127
-0.00506598 0.415968 0.074726 0.177498 -0.160395 0.970962
0.0369 -0.0989071 0.0211523 0.809887 0.0626055 -0.583235
0.0620615 0.354905 0.0787688 0.740505 0.627347 0.241015
-0.0469679 0.142028 -0.0209721 -0.762253 0.27459 -0.586149
0.0090836 -0.121595 0.0895997 -0.0999265 -0.195759 0.975548
0.0906623 0.10516 -0.044776 0.873761 0.0668356 -0.481741
0.0445028 0.2545 0.173411 0.970907 -0.101225 0.217011
-0.101669 -0.0447224 -0.117666 -0.677292 -0.690066 0.255118
-0.129818 -0.0258362 -0.10234 -0.290625 -0.879975 -0.375742
0.0147555 -0.0715131 0.10034 0.0366707 -0.201147 0.978874
0.084025 0.249915 0.0941855 0.862871 -0.0129449 0.505259
-0.186778 0.0441273 -0.105477 -0.57374 0.6332 0.5195
0.0478817 -0.20782 0.0832641 0.736378 0.25792 0.625479
-0.12843 -0.0340122 -0.0906339 -0.298092 -0.57845 -0.7593
0.0291766 0.0985232 0.131475 0.216804 -0.078309 0.973069
-0.0511389 -0.15991 -0.120924 -0.41785 0.0205248 0.908284
0.0563293 0.349112 -0.0937715 -0.0105114 0.784505 -0.620033
0.0463733 0.0608715 -0.0786867 0.499183 -0.0773386 -0.863038
-0.064817 -0.260074 -0.128165 -0.351228 0.831925 0.42958
-0.0485782 0.227468 0.0774111 -0.932165 -0.13106 0.33748
-0.0710018 -0.186701 -0.0701789 0.784262 0.111973 -0.610242
0.0727416 0.00577407 0.0208883 0.626602 -0.767853 -0.133315
-0.110388 0.0701637 -0.12901 0.189189 0.587365 -0.786899
-0.0623884 0.0100657 -0.0317427 -0.645688 -0.532883 0.546921
0.00866119 0.296979 0.229889 -0.0670111 0.841099 0.536714
-0.0131817 -0.17053 -0.0448967 0.0380633 -0.356612 -0.933477
-0.0175412 0.308806 0.190306 -0.804407 0.430594 0.40929
-0.0327165 0.244363 0.229285 -0.749981 -0.471153 -0.464267
0.0571137 0.052786 -0.0722907 0.590681 -0.233064 -0.772513
-0.119439 -0.0412529 -0.137337 -0.585607 -0.535832 0.608234
0.0131565 0.319425 0.205874 0.031781 0.713097 0.700345
0.0609754 -0.37496 0.00848854 0.313284 0.169113 -0.93448
-0.128309 -0.0408305 -0.143612 -0.500603 -0.410887 0.76195
0.000575698 0.046571 0.123088 -0.284064 -0.109772 0.952501
0.0399773 -0.116587 0.0666406 0.980171 0.171375 0.0994768
-0.0668535 0.395453 0.332828 -0.253632 0.271788 -0.928333
-0.138024 -0.0353397 -0.0867118 -0.206566 -0.277378 -0.938292
0.060915 -0.375201 0.00845837 0.313284 0.169113 -0.93448
0.0377447 -0.115862 0.0192289 0.795011 -0.024518 -0.6061
-0.150031 -0.0183692 -0.121407 0.417995 -0.899405 -0.127871
0.0289352 0.260052 0.294452 0.850693 -0.0732064 0.52054
0.0581998 0.434794 -0.221088 0.175911 0.898972 0.401129
-0.071575 -0.239075 -0.0759714 0.318183 0.403796 -0.857734
0.0247718 0.427312 -0.270324 -0.834403 0.0886896 -0.543972
0.0620615 -0.3431 0.0146507 0.289308 -0.278528 -0.915818
-0.0513614 0.197299 0.0408229 -0.994286 0.106616 -0.00527671
-0.0766888 0.0233555 -0.0421211 -0.551467 0.106183 0.827411
0.0595876 -0.291933 0.0151334 0.462181 0.154633 -0.8732
0.0383482 0.345492 0.147646 0.629164 0.709815 0.316725
-0.154617 -0.00334473 -0.159783 0.462452 0.0779931 -0.883208
0.0457095 -0.345997 0.0724633 -0.625699 -0.134487 0.768384
-0.039482 0.302772 0.0861604 -0.911603 0.387231 0.137956
0.0362363 0.259569 0.250766 0.998206 -0.0367603 0.0472644
-0.0291565 0.491513 0.0384018 -0.142572 0.949424 0.279761
0.112505 0.176421 -0.00329271 0.918896 -0.186777 -0.347483
0.0492092 0.259328 -0.132992 -0.907214 -0.240707 -0.344997
0.0382878 0.410417 -0.244741 -0.357693 -0.87623 -0.322919
-0.0716203 0.0363435 -0.13432 0.329797 -0.224097 -0.917069
0.00950594 -0.47464 0.11108 -0.110207 0.328693 0.937985
-0.02534 0.369628 0.296383 0.917192 0.22841 0.326476
-0.0617397 -0.256453 -0.111149 -0.516689 0.844262 -0.142318
-0.0252947 0.375903 0.294452 0.914456 0.286946 0.285364
-0.031917 0.344527 0.0200134 -0.767781 0.0524753 -0.63856
-0.0601558 0.0889896 -0.0406126 -0.77066 0.550376 0.321201
-0.0882438 -0.128051 -0.0674033 0.301544 0.407822 -0.861831
0.0227203 -0.482364 0.0651623 -0.0663678 -0.901226 -0.428238
-0.0950621 -0.116526 -0.136975 0.0831773 -0.463029 -0.882432
-0.0449345 0.349112 0.311829 0.0652742 -0.093639 0.993464
0.00968699 0.396419 0.0743942 0.241327 0.180061 0.953593
0.0183758 0.240743 0.294693 0.385157 -0.647425 0.657644
0.0957309 0.329804 -0.0688514 0.851085 0.523825 0.0355238
-0.0290207 0.361422 0.0587965 -0.855613 -0.0205712 0.517207
-0.059115 0.127908 0.0344043 -0.975774 0.164033 0.144772
0.120349 0.303013 -0.134802 0.851932 0.464222 0.242303
0.0359949 0.259569 0.264765 0.997694 0.00251668 0.0678259
0.0379258 -0.0657808 0.0831434 0.866935 -0.145967 0.476569
0.0312281 -0.299415 0.0780749 -0.418888 0.0160893 0.907895
-0.0145242 0.318701 0.310864 0.253355 0.22683 0.940404
-0.0566637 0.149389 0.0183239 -0.997165 0.0742813 0.0120464
0.0414858 0.26681 0.18572 0.97657 0.0496235 0.209403
-0.00928978 0.286118 0.245215 0.0720698 0.845587 -0.528951
-0.00174737 -0.18839 0.0132704 -0.581338 -0.169523 -0.795806
-0.0537976 0.105704 -0.0630588 -0.550763 0.825331 0.124453
-0.0477353 -0.0801416 0.0414414 -0.965492 -0.214499 -0.147701
-0.0281307 0.360215 0.0767173 -0.710778 0.0920618 0.697366
0.00531233 0.331976 -0.044957 -0.785369 0.412744 -0.461345
0.0895762 0.0516697 0.0654941 0.852957 -0.204545 0.480235
0.0267026 -0.379304 0.0190178 -0.385971 -0.0146263 -0.922395
-0.0270748 -0.484294 0.11102 -0.221241 0.512535 0.829675
-0.0313061 -0.185132 0.0609385 -0.950798 -0.194144 0.241436
0.114919 0.3006 -0.102219 0.950068 0.280426 0.136862
0.077448 0.357077 -0.175712 -0.13651 0.0815407 0.987277
0.0445028 0.2545 0.173411 0.970907 -0.101225 0.217011
-0.018582 -0.216146 -0.107408 -0.886746 0.149766 0.437323
-0.0690106 -0.215905 -0.112959 0.534233 -0.148468 0.832197
-0.0462014 0.0447608 0.0820271 -0.87609 -0.0897278 0.473725
-0.146592 -0.0168456 -0.12551 0.340464 -0.906433 -0.249929
-0.145928 -0.0123956 -0.0842983 -0.167515 -0.555259 0.814632
-0.0432664 -0.170409 -0.115252 -0.769089 -0.0118503 0.639032
-0.166866 -0.0176602 -0.1593 0.165085 -0.329572 -0.929586
-0.0400628 0.134425 0.092496 -0.865424 0.0366074 0.499702
0.0252545 0.28829 0.246422 0.505867 0.856885 -0.0992258
0.0737673 0.356112 0.00222834 0.615345 0.786597 0.0511438
-0.05023 0.123504 -0.0274284 -0.872661 0.308432 -0.378593
0.0587428 -0.218681 0.0816047 0.713105 0.411547 0.567548
-0.00244125 -0.237507 0.0683602 -0.798338 -0.281021 0.532619
0.0886108 0.30784 0.0531246 0.936367 0.21534 0.277212
-0.156669 -0.0181128 -0.156404 0.510258 -0.442302 -0.737567
-0.03955 0.304461 0.0845614 -0.913509 0.38102 0.142569
0.0621219 0.0739047 -0.0729545 0.511882 -0.154784 -0.844997
-0.152747 -0.0267865 -0.109942 -0.279452 -0.935063 -0.218092
-0.0463532 -0.0881064 0.0435608 -0.974251 -0.180919 -0.134549
-0.0572897 0.134908 0.0032541 -0.973351 0.139998 -0.18163
0.0518642 -0.198407 0.0234508 0.853702 0.114834 -0.507942
0.0250132 -0.117914 0.0120486 0.483256 0.00920986 -0.875431
-0.0329428 0.284429 0.236043 -0.244661 0.890405 -0.383824
0.0786548 0.010654 0.0565337 0.720943 -0.666484 0.189844
-0.102997 0.380006 0.302899 -0.596924 -0.800792 0.0491388
-0.0566637 0.149389 0.0183239 -0.997165 0.0742813 0.0120464
-0.0263205 0.28998 0.241474 0.0492958 0.804322 -0.592145
-0.00847515 -0.127086 0.00535089 -0.21961 -0.119922 -0.968189
-0.0906875 -0.250419 -0.126958 0.605816 0.323415 0.726905
-0.0543859 -0.00495879 -0.0605246 0.235924 -0.953979 0.185105
0.108764 0.292393 -0.223018 0.301502 -0.198853 -0.932499
-0.0233338 0.257638 -0.0356044 -0.81901 -0.00337636 -0.573769
0.0881281 0.322322 -0.227604 -0.359086 -0.174404 -0.916864
-0.0499208 0.0656382 -0.123096 0.31503 0.310794 -0.896752
0.0765429 0.188248 0.099616 0.662699 -0.00578593 0.748863
0.0303834 0.222279 0.204546 0.660108 -0.709373 0.247079
0.0285732 0.283222 -0.0969092 -0.890536 0.0559757 -0.451456
0.0881281 0.185955 -0.037656 0.700064 -0.161689 -0.695534
-0.0561584 -0.00441197 0.0219857 -0.984172 -0.160065 -0.0760625
-0.219603 -0.00594308 -0.12732 -0.908603 -0.245081 0.338195
-0.00953113 -0.150739 -0.0784454 -0.68268 -0.599508 0.417776
-0.0287341 0.113849 -0.0832725 -0.295804 0.819192 -0.491349
0.131331 0.267051 -0.190314 0.817776 -0.51303 -0.260849
0.00823878 0.0320594 -0.0841776 0.394281 -0.421483 -0.816636
-0.148281 -0.0182485 -0.124424 0.38372 -0.892928 -0.235454
0.0085707 -0.159669 0.00556208 0.00105668 -0.0522555 -0.998633
0.0225392 0.296497 0.289142 0.872836 0.416842 0.253772
-0.052719 -0.00373692 -0.0567835 0.152524 -0.944598 0.290641
0.0445631 -0.412129 0.0412075 -0.46505 -0.373057 -0.802843
0.0294782 0.346458 -0.0737992 -0.610085 0.599885 -0.517623
-0.0504977 0.137925 -0.0151192 -0.889703 0.181896 -0.41874
0.0393739 0.33801 0.156878 0.747732 0.515368 0.41868
-0.0606687 0.110953 0.0375796 -0.962306 0.145616 0.229702
-0.0240427 -0.0275559 -0.00193508 -0.137276 -0.31944 -0.937611
0.0531916 0.0761976 0.103236 0.666884 -0.152045 0.729485
-0.0202263 0.343803 0.299279 0.589898 0.411859 0.694545
0.0276078 -0.289519 0.074545 -0.424579 -0.0955346 0.900337
-0.176762 0.0460883 -0.155197 -0.0278368 0.573266 -0.818896
-0.044032 0.241226 0.0252044 -0.972511 0.0936076 -0.213215
-0.202466 -0.00992171 -0.164489 -0.552857 -0.207543 -0.807016
-0.0567165 0.101299 -0.0531632 -0.680042 0.702181 0.210914
0.0187982 -0.300139 0.0731271 -0.509342 -0.0111587 0.860492
0.106109 0.0985232 0.0314439 0.991557 -0.0831082 0.0995336
0.0616995 0.0135126 -0.0168087 0.44753 -0.868292 -0.213977
0.0485455 0.346216 -0.0905132 -0.354802 0.748254 -0.560564
0.135193 0.289256 -0.172333 0.990962 0.035531 0.129351
-0.0562036 0.0553202 0.0122296 -0.979965 0.160785 0.117548
-0.0807014 0.0743271 -0.118631 0.0684255 0.598978 -0.797837
-0.0398554 0.254742 0.00129307 -0.966971 0.107506 -0.231104
-0.0555625 -0.110251 -0.0773593 -0.678155 -0.624045 -0.388167
0.0703883 -0.240403 0.0491422 0.953105 0.193625 -0.232594
0.0734053 0.317977 -0.122493 -0.108753 0.736068 -0.668114
0.0318918 0.413796 0.0298355 0.967474 0.186088 -0.171361
-0.0417957 0.367938 0.053909 -0.715387 -0.523529 0.462752
0.00670016 -0.192252 -0.078566 -0.905255 0.402629 0.135657
-0.183761 -0.0521442 -0.130217 0.590699 0.744288 -0.311626
0.0410031 -0.478985 0.0549649 -0.151407 -0.893121 -0.423568
