ply
format ascii 1.0
element vertex 816
property float x
property float y
property float z
property float nx
property float ny
property float nz
element face 0
property list uchar int vertex_indices
end_header
-0.15886 -0.0442982 -0.0975884 -0.757192 0.062527 0.650193
0.0495574 0.364086 0.0861723 0.651247 0.674157 0.348409
0.061267 0.337528 -0.109539 -0.0419846 0.701066 -0.711859
-0.0557451 0.0893954 -0.0201488 -0.903246 0.240877 0.35514
0.0132821 -0.172861 0.00699738 -0.0286784 0.0616712 -0.997684
0.0673631 0.233591 -0.0852753 0.590412 -0.753898 -0.288185
0.102612 0.282482 -0.0186398 0.963186 0.0710132 -0.259286
0.00546568 0.360223 0.104612 -0.470533 0.876479 0.101898
-0.0368002 0.309763 0.0412809 -0.94044 0.118347 -0.318696
0.0100831 0.311695 0.25925 0.607335 0.61906 -0.497905
0.0663371 0.00667056 0.0252633 0.34174 -0.933761 -0.106321
-0.0638859 0.366742 0.0432123 -0.831497 -0.47221 0.292625
-0.00708883 0.21995 0.214705 -0.325609 -0.8909 0.316662
0.0358561 -0.0617418 0.0924194 0.78509 0.111425 0.609277
-0.0794282 -0.100371 -0.0618563 -0.0259523 0.172876 0.984602
-0.0358043 0.348876 0.305243 0.00918662 -0.0739163 0.997222
0.00314189 -0.305408 0.0649866 -0.761388 -0.263253 0.592441
0.0683892 -0.24336 0.0798046 0.831217 0.0584145 0.55287
-0.044494 -0.0416425 0.0783258 -0.734555 -0.196876 0.649361
-0.0110121 -0.139181 -0.0531044 0.585501 0.543062 0.601891
-0.0173045 0.323767 -0.0170101 -0.833423 0.447763 -0.323904
0.0721918 0.407785 -0.233395 -0.278799 -0.581474 -0.764303
-0.0682167 0.0723743 0.0395003 -0.922069 -0.386549 -0.0192085
0.0529979 0.256165 0.139016 0.934578 -0.0455872 0.352825
0.0592751 0.422754 -0.197421 -0.85019 0.212034 0.48189
-0.0634333 0.108469 -0.015471 -0.82853 -0.303602 -0.470494
0.0746061 -0.401016 0.0396965 0.692617 0.187366 -0.696546
-0.073664 -0.095301 -0.0616149 0.0328246 0.258874 0.965353
-0.0169272 0.347668 0.0912726 -0.708166 0.625716 0.327078
0.12241 0.312902 -0.157585 0.382011 0.581711 0.718109
-0.00769242 -0.455821 0.0674613 -0.401246 0.835827 -0.374693
0.0389344 0.441586 -0.237257 -0.789099 0.255818 0.558462
0.0252331 0.360706 -0.0104311 -0.257068 0.893146 -0.369061
0.0239655 0.370363 0.0957391 0.127777 0.936355 0.326975
-0.0608982 0.16599 0.00616745 -0.97386 0.118747 -0.193639
0.0315707 0.258097 0.221948 0.998692 0.0463655 0.0215691
-0.0870937 -0.0550118 -0.0854564 0.496442 0.709191 0.500592
0.0802798 0.214277 -0.0622185 0.746461 -0.260241 -0.61243
-0.0191303 0.35467 0.252852 0.642281 0.250468 -0.72439
-0.0892364 -0.23503 -0.0847925 0.0916338 -0.788815 0.607761
0.0514889 -0.180587 0.078869 0.847821 -0.00499296 0.530259
-0.160248 -0.0273828 -0.103262 -0.79334 0.030842 0.607997
-0.00551949 0.248198 0.290515 -0.230216 -0.716 0.659048
-0.156506 0.00633103 -0.163017 0.386345 -0.455858 -0.80183
-0.14371 -0.0510885 -0.149979 -0.0377158 -0.163794 -0.985773
-0.0632673 -0.145338 -0.117507 0.341183 -0.215632 -0.91493
0.01461 -0.323999 0.052764 -0.574044 -0.679893 0.45631
-0.141477 0.0885504 -0.136942 -0.048018 0.823004 -0.566003
-0.0239891 0.232746 0.244039 -0.531204 -0.847241 0.00218091
-0.126628 -0.0950596 -0.128854 -0.274703 -0.480582 -0.832814
0.0581283 0.34284 -0.185108 -0.899481 0.0972929 0.42599
-0.00467448 -0.15753 0.0773902 -0.485954 -0.121935 0.865436
-0.186021 -0.00849067 -0.0978299 -0.104875 -0.578621 0.808825
-0.0543041 0.158385 0.0697549 -0.939018 0.0589181 0.338782
-0.0789755 0.0710465 -0.127768 0.100178 0.348929 -0.931779
-0.103903 0.10032 -0.115454 -0.0191694 0.859774 -0.510315
-0.216442 0.0489855 -0.111109 -0.785972 0.21864 0.578313
0.0173865 0.323042 0.197322 0.499716 0.581886 0.641632
-0.210889 0.00515218 -0.113644 -0.694758 -0.521315 0.495522
-0.00316552 0.100018 0.12115 -0.376342 -0.0229387 0.926197
0.03483 -0.0798493 0.0816153 0.666325 -0.288857 0.687439
-0.0473478 0.241076 0.0908501 -0.911286 -0.198056 0.361015
-0.155962 0.0826352 -0.095838 -0.374911 0.75681 0.535425
-0.0356835 0.377365 0.0068163 -0.235017 -0.363686 -0.901388
0.0822112 0.306866 0.0688495 0.95754 0.184291 0.221706
0.0721918 -0.42709 0.089311 0.401666 0.20794 0.891866
-0.0566581 0.0822731 -0.0133283 -0.941359 0.252809 0.223453
0.0753304 0.0727969 0.0813739 0.717406 -0.152039 0.679863
0.0825734 0.34622 -0.0751955 0.578234 0.775308 -0.254051
-0.0133661 0.20305 0.14143 -0.643833 -0.499083 0.579996
0.00784985 0.363845 -0.00250905 -0.280089 0.326477 -0.902753
-0.136708 -0.0805132 -0.138873 -0.381515 -0.536394 -0.752814
0.00911739 0.225986 0.242108 0.213935 -0.92613 0.310669
0.0317518 -0.473687 0.0503648 0.09268 -0.725555 -0.681895
0.0268627 -0.255673 0.00966823 -0.0869743 0.0616754 -0.9943
-0.0585593 0.0627774 0.0147081 -0.998099 0.052633 -0.0320661
0.0733386 -0.264847 0.0441932 0.925574 0.149349 -0.347861
0.123376 0.260028 -0.172795 0.547502 -0.834943 -0.05578
0.0367614 0.261235 0.185613 0.971944 -0.0233138 0.234055
-0.011676 -0.131214 0.0759416 -0.536219 -0.112615 0.836533
-0.0561525 0.15259 0.0665861 -0.953295 0.0211467 0.3013
0.00166311 -0.202437 0.0782051 -0.519468 0.0469881 0.853197
0.081487 -0.489139 0.071958 0.00835798 -0.765682 0.643165
-0.187228 0.0733401 -0.108936 -0.515897 0.723306 0.458997
0.0192576 0.274031 0.301138 0.545822 -0.0143114 0.837779
0.069536 -0.397153 0.0292413 0.730007 0.0811025 -0.678611
-0.143589 -0.0252099 -0.0761009 -0.360848 0.318066 0.876711
-0.00331645 0.228038 0.244764 -0.277296 -0.937926 0.208333
0.0336832 0.114625 -0.0820764 0.405156 0.32442 -0.854752
0.0559554 0.0848685 -0.0773081 0.517432 -0.107279 -0.848973
0.0408055 0.185667 0.143664 0.505935 -0.194783 0.840291
-0.0855848 -0.239859 -0.107125 0.400593 -0.858912 0.319053
-0.0300249 0.331492 0.118192 -0.830074 0.557473 -0.0141739
0.109493 0.200756 0.0172734 0.913444 -0.0737386 0.400228
-0.185538 -0.00382423 -0.0966227 -0.087012 -0.582877 0.807888
0.0227583 0.0408069 -0.0803863 0.236246 -0.58045 -0.779273
-0.0323714 0.182407 -0.0422399 -0.665558 0.0635308 -0.743637
0.0635002 0.350807 0.0853575 0.74729 0.607897 0.268364
-0.0254528 0.103398 -0.0930012 0.133259 0.4726 -0.871144
0.0765979 0.0246913 0.0642321 0.842174 -0.363008 0.398708
-0.0400784 0.304693 0.0397493 -0.854023 0.115941 -0.507152
-0.07552 0.415753 0.0475129 -0.849248 -0.070358 0.523285
0.0410469 0.022292 -0.0462839 0.38493 -0.823319 -0.417102
-0.15053 0.0304857 -0.15686 0.370225 0.156227 -0.915711
0.130619 0.303245 -0.149859 0.77421 0.521546 0.358593
0.106113 -0.486724 0.0668879 -0.2088 -0.976434 -0.0545861
-0.0529536 0.203895 0.0124975 -0.969641 0.206935 -0.130284
-0.0519086 0.290932 0.0566119 -0.933523 0.329867 -0.140439
-0.00346731 -0.30565 0.038859 -0.9422 -0.219039 -0.253538
-0.0484719 -0.116306 -0.113523 0.652488 -0.15877 -0.74098
-0.117575 -0.0238669 -0.132234 0.579053 0.549482 -0.602302
-0.0237175 0.390644 0.280134 0.85868 0.408987 0.308866
0.0268627 0.243128 0.260698 0.7664 -0.612372 0.193987
-0.0930994 0.0167315 -0.11473 0.403579 -0.700676 -0.588368
0.0272249 0.242041 0.252972 0.78264 -0.610696 0.120517
0.0547482 -0.280299 0.0840296 0.0978823 -0.00923134 0.995155
-0.205094 -0.00320558 -0.112074 -0.657872 -0.540808 0.524147
0.0657938 -0.447612 0.0945923 0.352483 -0.0337107 0.935211
0.113235 0.311695 -0.128733 0.643815 0.751719 -0.142903
-0.168879 -0.0272169 -0.153963 -0.370649 -0.40305 -0.836762
-0.00129445 -0.25688 0.0644132 -0.833594 -0.456641 0.310807
-0.126568 0.0010676 -0.0867239 0.354068 -0.477132 0.804351
-0.0296025 0.125248 -0.0689183 -0.440314 0.786531 -0.433004
0.0807627 0.352739 -0.0635464 0.526187 0.830977 -0.180568
-0.0485851 0.307832 0.287377 -0.883041 -0.222725 0.413076
0.0677253 0.359016 0.00835544 0.59447 0.796148 0.112933
-0.212941 0.0268189 -0.103262 -0.805012 -0.185949 0.563364
-0.0235365 0.490597 0.0440423 -0.0185024 0.916517 0.399568
-0.089508 0.0441568 -0.0507504 -0.416681 -0.0146162 0.908935
0.0923514 0.22321 0.0643227 0.955574 0.0559596 0.28939
-0.0633578 0.108408 -0.0111252 -0.822729 -0.401846 -0.402042
-0.0354044 0.33608 0.0126107 -0.656259 -0.369608 -0.65781
0.0557744 -0.25688 0.0882245 0.127246 0.0179165 0.991709
-0.0479419 0.161644 0.0781749 -0.90461 0.0316238 0.425065
0.0647074 0.325215 -0.170018 -0.869634 0.145263 0.471843
-0.128982 -0.0371458 -0.0759198 0.250949 0.339662 0.906452
-0.0660287 -0.120833 -0.118955 0.201364 -0.014167 -0.979414
-0.0712346 0.363603 0.270718 -0.6976 -0.521454 -0.491366
0.0157568 -0.365284 0.0584377 -0.877368 -0.247185 0.411249
-0.0596684 0.325939 0.276995 -0.926694 -0.283119 0.247147
-0.00769242 -0.455821 0.0674613 -0.401246 0.835827 -0.374693
0.116736 0.22152 0.0105887 0.987716 -0.0300625 0.153341
0.0121353 0.266547 -0.0832232 -0.745464 -0.0118868 -0.66644
0.033985 -0.317238 0.0102869 -0.274709 -0.306047 -0.911521
0.00709539 0.0936204 0.124953 -0.20391 -0.015198 0.978872
0.0551104 0.270651 0.133523 0.910014 -0.0182321 0.414176
-0.0205789 -0.0291483 -0.00039651 -0.0852386 -0.158771 -0.983629
-0.170931 -0.00150044 -0.0893797 -0.15372 0.24384 0.957555
0.0176883 0.363603 0.128936 -0.0482006 0.98497 0.165866
-0.079398 0.378089 0.280134 -0.860515 -0.410994 -0.300994
-0.0518332 0.288759 0.0700869 -0.976005 0.204157 0.0757204
0.0915065 0.0909043 -0.0354798 0.927273 -0.0498529 -0.371051
0.0580076 0.243852 -0.135493 -0.866902 -0.461593 -0.188184
0.110459 0.314351 -0.128371 0.465676 0.866751 -0.178575
-0.0448665 0.401025 0.299931 0.641704 0.524122 0.559922
-0.0539872 0.360223 0.266734 -0.646625 -0.502699 -0.573733
-0.16562 -0.0331018 -0.153722 -0.52 -0.390064 -0.759901
0.0503421 0.0752715 -0.0777306 0.497645 -0.138505 -0.856251
-0.0195075 0.211017 0.134248 -0.849112 -0.18156 0.496029
0.138827 0.288276 -0.197904 0.919405 -0.0752034 -0.386056
-0.0441809 0.339943 0.244402 -0.364326 0.232686 -0.901734
0.100319 0.334148 -0.2276 -0.300115 -0.133555 -0.944507
-0.185779 0.00460141 -0.0908283 0.0702358 -0.506452 0.859403
0.0688721 -0.23829 0.077692 0.824276 0.133505 0.550223
-0.162904 0.0209792 -0.16362 0.257175 0.0777493 -0.963232
-0.0466718 0.305176 0.243919 -0.395957 0.302056 -0.867168
0.00818182 -0.218975 0.0903673 -0.504676 0.0533186 0.861661
-0.0326883 0.0591257 -0.109902 0.583208 -0.110643 -0.804752
0.0464188 -0.0359386 0.0526584 0.927713 -0.37327 -0.00424529
-0.0518709 0.233108 0.0749759 -0.971257 -0.0184751 0.237316
-0.0330881 0.0298972 0.0988778 -0.725687 -0.125194 0.676539
0.0437027 -0.183002 0.0220002 0.761915 0.0618636 -0.644716
-0.146184 0.00612544 -0.13658 -0.0145719 -0.99795 -0.0623197
0.106234 0.20474 0.0251728 0.895904 -0.0606211 0.440092
-0.105201 0.034922 -0.145151 0.358209 -0.333995 -0.871857
-0.0260715 0.00777586 0.0993606 -0.649474 -0.118592 0.751079
0.0430387 0.3834 0.0637191 0.68465 0.63252 0.362179
-0.0682469 0.11203 -0.0826196 -0.309743 0.949421 -0.0515589
0.0482899 -0.287059 0.0817964 -0.133281 0.0107739 0.99102
0.100681 0.297209 -0.0320393 0.991682 0.0405054 -0.122175
-0.0911377 -0.0898084 -0.1332 0.369524 -0.100332 -0.923789
-0.18252 0.0032754 -0.0987956 0.0820576 -0.582892 0.808395
-0.131216 -0.0319248 -0.0773081 0.22678 0.386878 0.89381
0.117943 0.277894 -0.211545 -0.0872397 -0.42417 -0.901371
0.0366408 -0.163928 0.0823396 0.411466 0.276041 0.868618
0.11565 0.35636 -0.183901 0.89608 0.361462 0.257656
-0.108159 0.394024 0.28786 -0.95111 0.270817 -0.148486
0.10056 0.293105 -0.0356608 0.99299 -0.0048418 -0.118103
-0.0150863 0.0184291 -0.029112 0.050914 -0.995397 -0.0811954
0.0740629 -0.455338 0.0871984 0.446317 -0.00449333 0.894864
0.0288546 0.430721 0.038097 0.965863 0.0102762 0.25885
0.00920795 -0.292371 0.073316 -0.589937 -0.085956 0.802861
0.0599994 -0.170809 0.0604296 0.986861 -0.0147935 0.160893
-0.0470507 -0.209318 -0.0862411 0.532642 -0.727658 0.432211
0.000878475 -0.0940335 0.0046585 0.00982769 -0.104203 -0.994507
-0.013517 0.348151 0.14819 -0.627825 0.757544 0.178783
-0.0779494 -0.0856436 -0.127043 0.53219 0.0500205 -0.845146
0.0316914 -0.0586031 0.0941095 0.808762 0.162384 0.565275
0.0134028 0.00931124 -0.048155 -0.0394431 -0.970732 -0.236903
-0.0648819 0.0533313 -0.0171007 -0.987318 -0.0655159 0.144605
0.0627759 0.304935 -0.176416 -0.980635 0.195652 0.00867459
0.025897 0.352739 0.156399 0.555282 0.702011 0.445917
-0.0230687 -0.155478 -0.040067 0.0309219 0.201534 0.978993
0.0140668 0.302279 0.253455 0.53962 0.704358 -0.461183
0.0402019 0.186753 -0.074773 0.139218 -0.0149874 -0.990148
-0.0308625 -0.15415 0.0426767 -0.92096 -0.220368 -0.321358
0.106113 0.194117 0.0244089 0.912676 -0.0394561 0.406775
0.000154211 -0.198453 0.0189785 -0.502006 -0.0775903 -0.861377
-0.0257697 0.336804 0.125073 -0.784074 0.613458 -0.094323
0.0708035 0.373985 -0.203095 -0.826629 -0.188745 -0.530151
0.011411 0.310488 0.214947 0.140229 0.71136 0.688696
-0.107978 0.0774444 -0.0672886 -0.381164 0.509093 0.771711
-0.018074 0.266547 -0.0448353 -0.826635 0.0517452 -0.560355
-0.0580463 -0.200747 -0.119921 0.192787 0.283811 -0.9393
-0.114798 -0.0182084 -0.114247 0.674019 0.606675 -0.421479
-0.0233101 -0.155599 0.0687288 -0.602442 -0.0540896 0.796328
0.104906 0.263891 -0.107246 0.734105 -0.625305 0.264731
0.0260781 0.447622 0.0460492 0.912403 0.204957 0.354278
-0.0283047 -0.165136 -0.0439903 -0.171127 -0.409057 0.896319
-0.0441412 -0.115159 -0.0984334 0.838724 0.0704252 -0.539983
0.00121045 0.476594 0.0590111 0.421584 0.715834 0.556641
0.0272852 0.320869 -0.0885347 -0.787934 0.317162 -0.527796
-0.0121589 0.23504 0.2543 -0.415625 -0.893142 0.17191
-0.0302815 -0.119625 -0.0829214 0.679262 0.487457 -0.548624
-0.00422183 0.225141 0.201426 -0.585849 -0.809869 0.0298918
0.0265609 -0.0394394 0.0862629 0.663732 0.294187 0.687688
-0.0489359 0.233833 0.0843314 -0.888894 -0.161738 0.428612
0.0957315 0.265098 -0.0410327 0.974559 -0.209392 -0.0799426
-0.038758 0.177337 0.106362 -0.857608 -0.017896 0.513992
-0.138398 -0.094637 -0.0945705 -0.795608 -0.386992 0.466096
-0.226461 0.0329604 -0.122697 -0.928199 -0.0309053 0.370799
-0.0384751 0.296002 0.24078 -0.278449 0.541102 -0.79352
0.00145188 -0.326896 0.0409112 -0.960209 -0.27858 0.0198035
-0.227547 0.02279 -0.127164 -0.934632 -0.191036 0.299947
-0.0945782 -0.232978 -0.131027 -0.242728 -0.474514 -0.84612
0.00944937 -0.308547 0.0690306 -0.485184 -0.390703 0.782271
0.0255952 0.290932 0.248627 0.754258 0.583846 -0.300364
-0.0527272 0.0816695 0.0147534 -0.97588 -0.0199327 -0.217394
0.0288546 0.250612 0.274701 0.847821 -0.458461 0.266483
0.0560158 -0.264123 0.0875606 0.0255476 -0.116112 0.992908
0.0945243 0.0599405 0.000901193 0.953488 -0.280811 -0.109569
0.0656731 0.234074 -0.0969849 0.509848 -0.83133 -0.221236
-0.224047 0.0335639 -0.118593 -0.870971 -0.00489786 0.49131
0.104665 0.332941 -0.161206 0.324846 0.355789 0.876293
0.0435216 -0.0516318 0.0788992 0.842651 0.285 0.456852
-0.0688806 0.0750905 0.051753 -0.966429 -0.111334 0.231559
-0.0512861 0.484561 0.00633344 -0.344377 0.813847 -0.468036
-0.0842267 0.0917493 -0.11811 0.0386919 0.459185 -0.887498
-0.00730007 0.150055 0.12453 -0.391368 -0.126926 0.911439
0.0669406 0.325215 -0.176175 -0.953729 0.0802156 0.289769
-0.0360985 0.281999 0.150243 -0.994113 -0.0763749 0.0768549
0.0997152 0.0728572 0.0220455 0.977595 -0.206346 -0.0415946
0.0407451 -0.173706 0.0166019 0.553511 0.11859 -0.824356
0.0315707 0.387505 0.00926081 0.352063 0.505939 -0.78745
-0.0325449 -0.48262 0.0776317 -0.636735 -0.67826 -0.366786
0.0281302 -0.409466 0.0744628 -0.951465 0.122555 0.282302
0.0700793 -0.462823 0.0894015 0.258708 -0.211126 0.942601
-0.00823563 0.415028 -0.0136301 0.224865 -0.293955 -0.928992
0.046117 0.00612167 -0.00385202 0.484428 -0.727924 -0.485238
-0.0865807 0.0425875 -0.0488189 -0.479368 -0.00842476 0.877574
0.0239655 0.253027 -0.0905265 -0.721002 -0.0771283 -0.688628
0.0837806 0.365776 -0.16688 -0.102043 0.113523 0.988281
0.0202233 0.0662178 0.125013 0.000805294 -0.115725 0.993281
-0.0534289 -0.0210452 0.0728634 -0.873455 -0.0679123 0.482146
0.00314189 0.365293 -0.00151314 -0.35552 0.243337 -0.902437
0.0285527 -0.417675 0.0602183 -0.967707 0.24872 -0.0410145
0.0453927 -0.309513 0.0873192 -0.0999736 0.0107942 0.994932
0.0079404 0.468385 -0.00611546 0.576758 0.393906 -0.715673
0.0312086 0.232143 0.192735 0.876486 -0.399516 0.268625
0.0539636 0.277894 -0.156619 -0.977283 -0.123681 -0.172106
-0.155057 0.0077834 -0.141529 0.374058 -0.927395 -0.00431081
-0.147875 0.0335639 -0.0721172 -0.266297 -0.142367 0.953319
-0.021273 0.367707 0.0112677 -0.0582467 0.111849 -0.992017
0.0567401 0.015879 0.0862327 0.688474 -0.416918 0.59345
-0.191695 -0.017469 -0.114006 -0.559391 -0.726095 0.399835
-0.169724 -0.0430609 -0.132958 -0.69991 -0.621219 -0.352438
-0.227668 0.0233181 -0.146116 -0.943954 -0.264933 -0.196878
-0.0422664 0.305901 0.0450231 -0.889514 0.345927 -0.298494
0.0760547 0.309763 -0.201284 -0.751909 -0.148802 -0.642254
0.0544465 -0.303235 0.0877115 0.236392 0.048098 0.970467
0.111063 0.279343 -0.0925787 0.887461 -0.37249 0.27141
-0.202318 0.00459197 -0.16688 -0.0136776 -0.559517 -0.828706
-0.0914093 0.0463599 -0.134769 0.113974 0.241195 -0.963761
-0.0638709 0.0959744 -0.0412742 -0.80886 0.502789 0.304874
0.0415901 0.0104467 -0.0140526 0.275658 -0.866228 -0.416728
0.0501007 -0.371561 0.0903673 -0.0785573 0.216884 0.973031
-0.0557904 0.0206322 -0.0182173 -0.837353 -0.532262 -0.124648
0.00383604 -0.30565 0.0296431 -0.644729 -0.438972 -0.625802
0.0137348 0.0670628 -0.102296 0.396644 -0.265374 -0.878778
-0.0306134 -0.150287 0.0410847 -0.917883 -0.231194 -0.322551
-0.0248341 0.379779 0.00572986 -0.0946711 -0.271491 -0.957773
0.083177 -0.345969 0.0747043 0.596207 0.0167408 0.802656
-0.0295421 0.314834 0.163763 -0.904961 0.353575 0.236707
-0.0446713 0.0102128 -0.068375 0.149021 -0.988341 -0.0312277
0.041228 0.354429 0.126824 0.610876 0.690983 0.386489
0.056559 -0.386288 0.0124673 0.612609 0.104611 -0.783433
-0.0264488 -0.193625 -0.0951741 0.857281 -0.486031 -0.169832
0.0981459 0.255441 0.0396738 0.894735 0.0789643 0.439562
-0.223685 0.0180971 -0.122577 -0.847897 -0.245708 0.469786
-0.0146034 0.0966987 0.116382 -0.508382 0.0108249 0.861064
-0.134234 -0.0737531 -0.0790584 -0.583787 -0.257901 0.769857
0.0340454 -0.399809 0.0830035 -0.756088 0.112798 0.644677
0.0676649 0.157057 0.102379 0.727976 -0.0434853 0.684222
0.0898164 0.338494 -0.0149881 0.874878 0.48353 -0.0280791
-0.0175459 0.247594 0.218689 -0.721605 -0.531073 -0.444126
-0.0940349 0.402957 0.280134 -0.828811 0.376043 -0.414324
-0.0197489 -0.483586 0.104551 -0.0773786 -0.934563 0.347281
0.065492 -0.417916 0.0816757 0.166289 0.374596 0.912154
0.0513682 0.00880195 0.0902465 0.547841 -0.606074 0.576667
-0.0442582 0.253268 0.011313 -0.979425 0.0661576 -0.190658
0.113235 0.245422 -0.00361059 0.975721 0.0715532 -0.206998
0.0491349 -0.0313816 0.0444346 0.896957 -0.425973 -0.118383
-0.0785832 0.43555 0.00686157 -0.870432 -0.218973 -0.440907
-0.0403727 0.395955 0.302587 0.634371 0.432944 0.640417
-0.0198697 0.308798 -0.0258224 -0.851362 0.355602 -0.385656
-0.132906 0.0819713 -0.0801449 -0.340368 0.676524 0.653042
0.0618705 0.436033 -0.272507 0.435885 0.327431 -0.838328
-0.0188587 0.0301386 -0.0917337 0.291604 -0.552014 -0.781184
-0.0416666 -0.104717 -0.106884 0.786275 0.171531 -0.59359
-0.00452355 0.396921 0.0709922 -0.00510508 0.160717 0.986987
-0.137191 -0.0688641 -0.147082 -0.0387233 -0.256504 -0.965767
-0.0226612 0.0365819 0.106785 -0.575036 -0.107654 0.811015
-0.0345518 0.326905 0.0878322 -0.881719 0.433778 0.185498
-0.0593063 0.0371251 -0.00699065 -0.978162 -0.207208 -0.0162608
0.0176279 0.342116 0.176559 0.218048 0.730428 0.647248
-0.049417 0.316041 0.243919 -0.620376 0.121338 -0.774862
-0.191091 -0.0119764 -0.105314 -0.353517 -0.593157 0.723319
0.0234827 -0.254224 0.00945698 -0.0973108 0.0350947 -0.994635
0.0811248 0.216208 0.0930834 0.789886 0.0373888 0.612112
-0.0246833 0.288517 0.197926 -0.903064 0.41211 0.120999
-0.0416741 -0.0886616 0.0682459 -0.84135 -0.200922 0.501757
-0.01572 -0.126868 -0.0693408 0.743192 0.643612 0.182837
0.0471431 -0.48431 0.0888583 0.230369 -0.93293 0.276716
0.0303635 -0.315307 0.0811928 -0.566559 -0.347395 0.747213
0.0971801 0.277653 -0.20225 -0.385954 -0.535786 -0.750982
0.0883678 0.0304102 0.0270934 0.922353 -0.386334 -0.00338496
-0.0132454 0.0954312 -0.100727 -0.00152523 0.24023 -0.970715
-0.0745392 0.368915 0.283755 -0.766046 -0.640729 -0.0513738
0.0300014 0.164904 -0.0749541 0.0989578 0.14848 -0.983952
0.0258366 -0.00434483 0.00779713 -0.0758713 -0.737344 -0.671243
0.0100228 -0.143889 0.0892204 -0.156582 -0.0898118 0.983573
0.0348904 -0.274746 0.0815248 -0.180891 -0.20311 0.962302
0.0911443 0.244094 0.0573211 0.964984 0.0879133 0.247136
-0.0612151 0.0146944 0.0339549 -0.985569 -0.145669 -0.0862238
-0.0991955 0.386298 0.29124 -0.611764 -0.763519 -0.206842
0.0325968 -0.370112 0.0788992 -0.64723 0.359976 0.671945
0.0367614 0.298658 -0.110988 -0.85301 0.105891 -0.511039
-0.0184664 -0.136043 -0.0488189 0.322333 0.541702 0.776312
-0.10662 -0.121315 -0.0954155 -0.386107 -0.894573 0.225079
0.0574644 -0.277402 0.0855688 0.122262 -0.088469 0.988547
0.108045 0.285862 0.000584311 0.964859 0.113317 -0.23708
-0.00503665 0.105088 -0.0987956 -0.0553853 0.348437 -0.935695
0.0560761 0.365052 -0.0398256 0.101863 0.984885 -0.14009
0.038029 0.177337 0.142819 0.206044 -0.34247 0.916657
-0.000781356 0.0299424 -0.0842493 0.362962 -0.484652 -0.795846
-0.019251 0.307832 0.244522 0.0487613 0.426018 -0.9034
0.0102642 -0.267986 0.0715053 -0.872147 -0.263725 0.412079
0.10056 0.150055 0.0531866 0.981609 0.0277933 0.188869
0.0734593 -0.239497 0.0628137 0.989311 0.0842075 0.119049
-0.0509881 0.413338 0.0651375 -0.324317 -0.0603907 0.944019
-0.0149354 0.318214 -0.0271503 -0.834333 0.395928 -0.383576
-0.0620601 0.0674249 -0.00768477 -0.963143 0.208025 0.170529
0.0595769 0.241679 -0.154567 -0.904336 -0.340639 -0.257181
0.0182315 0.206913 -0.0676507 -0.218134 -0.179814 -0.959211
0.0317518 0.259787 0.236555 0.999879 -0.0151461 0.0035056
0.0726143 -0.380977 0.0282973 0.818405 -0.175107 -0.547313
0.03314 0.276204 0.258525 0.987884 0.150745 -0.0369016
-0.221029 0.0116162 -0.120404 -0.801948 -0.454599 0.387582
-0.199058 0.00164858 -0.104952 -0.637232 -0.49109 0.593941
-0.0978677 -0.119806 -0.0788774 -0.634838 -0.417912 0.649869
0.0819698 0.295036 0.0843918 0.940193 0.157098 0.302252
-0.115583 -0.0738738 -0.0684957 -0.289097 0.0537504 0.95579
-0.0548926 0.267271 0.054605 -0.993569 0.073743 -0.0859176
-0.0512711 0.48432 0.04282 -0.425114 0.746794 0.511446
-0.181796 0.0841442 -0.120645 -0.350083 0.928847 0.121184
-0.0555565 0.286344 0.252127 -0.942553 -0.0274321 -0.332929
-0.0551265 0.116557 -0.0805674 -0.245092 0.968396 -0.0462468
-0.0589592 0.378813 0.256111 -0.428892 -0.210797 -0.878417
0.0928343 -0.425642 0.0530507 0.835299 0.188473 -0.516482
0.0846256 0.342598 -0.0872672 0.419285 0.869459 -0.261229
-0.129767 0.0169503 -0.0745316 -0.221303 -0.488353 0.844119
-0.0656665 0.110038 -0.0630031 -0.504789 0.824442 0.255897
0.0598184 0.400301 -0.18547 -0.961184 0.035843 0.273571
0.0526961 0.294795 -0.144064 -0.587746 0.60741 -0.534423
-0.0393578 0.316765 0.298965 -0.510818 -0.156652 0.845296
-0.0495867 0.101769 -0.0302889 -0.949492 -0.290229 -0.1193
-0.0234308 0.376158 0.0663748 -0.367602 -0.11843 0.922411
-0.0352384 0.477559 -0.00816764 -0.185466 0.701828 -0.687779
-0.0878784 -0.0644579 -0.12813 0.621259 0.304189 -0.722154
0.0421937 0.0311194 -0.0698236 0.393897 -0.644599 -0.655238
-0.0346122 -0.0924038 0.0236261 -0.802964 -0.198862 -0.561875
0.0255952 -0.436265 0.0444497 -0.744501 0.367275 -0.557518
-0.0251057 -0.0602328 0.0018971 -0.23227 -0.177827 -0.956257
-0.0599853 0.138587 0.042488 -0.968221 0.0461372 0.245803
-0.157653 0.000312194 -0.153118 0.863239 -0.349987 -0.36377
0.029096 0.34284 -0.0811106 -0.71344 0.479732 -0.510745
-0.028682 0.113599 -0.0902247 0.0407139 0.73938 -0.672056
0.0289149 0.425893 0.0387157 0.991133 0.0296889 0.129512
0.0271042 0.26027 0.29124 0.749326 -0.425717 0.507223
0.00573729 0.0110352 -0.0292025 -0.294342 -0.955536 0.017718
-0.058831 0.111245 0.0612746 -0.90617 0.106756 0.409218
0.0439441 0.29745 -0.122939 -0.825404 0.113364 -0.553044
0.086557 0.383159 -0.22929 -0.496996 -0.216767 -0.840242
0.00818182 -0.315548 0.0613349 -0.626941 -0.505862 0.592494
0.0504025 0.161765 -0.0601059 0.568853 0.0468446 -0.821104
0.0968179 0.056983 0.0406622 0.960326 -0.203036 0.191182
0.0467809 0.304935 0.151027 0.918814 0.125553 0.374189
0.082332 0.365052 -0.167121 -0.378942 0.0732095 0.92252
-0.0213937 0.30252 0.242229 -0.0792728 0.668568 -0.739414
-0.0440866 -0.0998279 -0.072419 0.508367 0.78613 0.351516
0.0630777 0.161886 0.105396 0.749012 -0.0470672 0.660883
-0.0625731 -0.215716 -0.0773684 0.297676 -0.70366 0.645176
0.026742 0.138346 -0.0791188 0.145653 0.209559 -0.966887
0.058068 0.260994 -0.135614 -0.925406 -0.307304 -0.221784
0.0158775 0.000536653 0.101896 0.438383 -0.307146 0.844678
0.105992 0.262925 -0.114006 0.731233 -0.652622 0.198451
-0.0646253 0.0482009 -0.132476 0.403888 -0.156185 -0.901377
0.0257159 -0.477791 0.055118 0.00266071 -0.845147 -0.534528
-0.0593063 0.435309 -0.00810728 -0.547549 -0.0800074 -0.83294
0.0902993 -0.443025 0.0811626 0.686855 -0.00203974 0.726791
-0.0237477 0.347668 -0.000909555 -0.717077 0.179483 -0.673488
0.0223359 -0.185416 0.0890092 -0.0979637 0.182696 0.978277
0.0140668 -0.353936 0.0259197 -0.500446 0.0346552 -0.865074
-0.0477326 0.103459 -0.106884 0.245905 0.673304 -0.697275
0.00588822 0.138708 0.128574 -0.307723 -0.152582 0.939162
0.011924 -0.335829 0.0426389 -0.839685 -0.048933 -0.540865
0.0351922 -0.058241 0.0919969 0.799838 0.145732 0.582255
-0.00536863 0.343081 0.285928 0.764534 0.466784 0.444523
-0.0578803 0.113116 -0.0606492 -0.437183 0.866804 0.239836
0.0847463 0.346703 -0.00151314 0.763139 0.6454 0.0328315
0.104906 0.325698 -0.118835 0.384498 0.831938 -0.40005
-0.0442148 0.0127177 -0.0317979 -0.14116 -0.970649 -0.194715
-0.123369 -0.0496399 -0.0729623 -0.18141 0.0570033 0.981754
-0.0822952 -0.0559474 -0.0950534 0.699293 0.702659 0.131376
-0.0218615 0.340667 0.0989381 -0.705228 0.691047 0.158457
0.0357958 -0.463788 0.040549 -0.0556057 -0.409639 -0.910551
-0.0446826 0.250612 0.0143007 -0.97957 0.056853 -0.192897
0.0342264 -0.217285 0.0124372 0.397377 -0.0598627 -0.915701
0.00187441 -0.157168 -0.0667454 0.95626 -0.259888 0.134259
-0.0362041 0.0896368 -0.107246 0.419064 0.395007 -0.81753
0.0935586 0.134966 -0.032311 0.780062 0.142251 -0.609317
0.127359 0.279343 -0.209613 0.358622 -0.524555 -0.772161
-0.0259055 -0.161635 -0.0420588 -0.149294 -0.0195099 0.9886
0.102009 -0.491795 0.0714751 -0.2088 -0.976434 -0.0545861
-0.0543116 -0.0181631 0.0215324 -0.928153 -0.241519 -0.283197
0.00619001 -0.302511 0.0241108 -0.633468 -0.421233 -0.649062
0.0604823 0.0109824 0.00861196 0.326356 -0.912515 -0.246594
0.0742439 0.122653 -0.0520783 0.664437 0.239332 -0.707986
0.101043 0.325698 -0.0526819 0.903839 0.386253 0.184077
-0.154152 -0.0045146 -0.117869 -0.297542 -0.934414 -0.195805
-0.17576 -0.0375079 -0.125957 -0.835965 -0.300045 0.459495
-0.0338501 0.18458 0.109501 -0.8518 0.0506511 0.521412
-0.0859469 0.100984 -0.112557 0.138222 0.770728 -0.621991
0.0954901 0.318938 0.0258603 0.904538 0.303044 0.29996
0.00676341 0.337287 -0.0482757 -0.715994 0.544142 -0.437336
0.041228 -0.469583 0.0991796 0.353323 -0.166654 0.920538
0.00407746 -0.452199 0.0569439 -0.270319 0.698461 -0.662631
0.0560761 0.438206 -0.218305 -0.914851 0.206143 0.347207
-0.0683223 0.403922 0.00301373 -0.726181 -0.186439 -0.661742
0.0185937 0.367707 0.0982138 -0.00907971 0.950286 0.311245
0.0953694 0.0511282 0.0402774 0.935532 -0.312963 0.163808
-0.0332315 0.322318 0.108777 -0.904054 0.424368 0.0509728
-0.105382 -0.000712026 -0.101693 0.621758 -0.673763 0.399325
-0.0475063 0.0556249 0.0841805 -0.835595 -0.129288 0.533915
-0.0201564 0.263167 0.293654 -0.549942 -0.528681 0.646576
-0.0575936 0.0868 -0.120645 0.155105 0.495224 -0.854807
-0.0284255 0.28055 -0.0249472 -0.890077 0.150832 -0.43013
-0.0421834 -0.00196445 -0.00892212 -0.366851 -0.772239 -0.518717
-0.119868 -0.0149189 -0.12487 0.735766 0.603965 -0.306391
0.0139762 0.353946 0.160504 0.0689831 0.858665 0.507874
0.0975423 0.0959744 -0.0167687 0.971496 -0.0207018 -0.23615
0.0571022 0.428549 -0.208527 -0.956854 0.135124 0.25724
-0.0412629 0.333182 0.0149647 -0.616733 -0.473419 -0.6289
-0.0108008 0.306142 0.211929 -0.513274 0.569154 0.64235
-0.140511 -0.0303857 -0.148772 0.310729 0.0237704 -0.950201
0.0581886 0.305901 0.122236 0.879171 0.121473 0.460764
-0.00621364 0.295519 0.221345 -0.400105 0.817945 0.41338
0.116012 0.346703 -0.203457 0.96402 0.233008 -0.127957
-0.198575 0.00370922 -0.16519 0.101888 -0.539131 -0.836036
0.0510664 -0.45389 0.036422 -0.0974324 -0.247872 -0.963881
-0.0994068 0.393782 0.302587 -0.96638 0.242242 0.0861844
0.101284 0.143778 -0.0117891 0.969676 -0.157958 -0.186488
-0.0116157 0.105873 -0.0983127 -0.0947591 0.370122 -0.924137
-0.0480419 0.365052 0.0462453 -0.717819 -0.552864 0.423175
-0.037268 0.185788 0.10437 -0.8518 0.0506511 0.521412
-0.0570881 -0.199902 -0.119438 0.159317 0.26536 -0.950895
-0.0737998 0.0441568 -0.136701 0.398929 -0.0571513 -0.915199
-0.0150561 -0.077616 0.0875304 -0.465161 -0.265284 0.844541
-0.132906 0.0819713 -0.0801449 -0.340368 0.676524 0.653042
-0.18916 0.0678474 -0.159516 -0.0693162 0.633371 -0.770738
0.0951279 0.336562 -0.0678318 0.747395 0.664371 -0.0035369
0.0292167 -0.359006 0.0649262 -0.664101 0.301345 0.684223
0.0263799 -0.0203058 0.0210646 0.482831 -0.437362 -0.758676
-0.00642487 -0.160186 0.0760322 -0.483758 -0.0742241 0.872049
0.0681478 0.328837 -0.184867 -0.986563 -0.0178728 0.162398
0.00878541 -0.483344 0.0782654 -0.126606 -0.952336 0.277536
0.0463585 -0.0400128 0.059162 0.994761 0.0350583 0.096028
0.0948865 0.120299 -0.0268787 0.916329 -0.0558105 -0.396518
0.00902683 0.15428 -0.0695218 -0.483037 0.314048 -0.817343
0.0406848 -0.066148 0.0365956 0.935821 0.145703 -0.320952
-0.0135472 0.274514 0.305726 -0.176057 -0.295301 0.939043
0.0712864 -0.365766 0.0235242 0.59705 0.0220676 -0.8019
0.0584301 0.270651 -0.166518 -0.968486 -0.197357 -0.151938
0.0819698 -0.361179 0.0695738 0.853414 -0.0306364 0.520333
0.0220341 -0.247223 0.0905483 0.0294735 -0.260676 0.964976
0.10056 0.297692 -0.0215672 0.985025 0.108389 -0.134083
-0.0843776 0.0489855 -0.134286 0.148635 0.313088 -0.938021
0.00410765 -0.313617 0.0408886 -0.831206 -0.509075 -0.223472
-0.151134 0.0583712 -0.0743505 -0.306735 0.212486 0.927773
0.00797059 0.442793 -0.0107932 0.403376 -0.0481824 -0.913765
-0.000358884 0.144502 -0.0667454 -0.45186 0.423928 -0.784925
-0.00207909 -0.133749 0.0848445 -0.393416 -0.100896 0.913807
-0.0437395 0.239869 0.0967652 -0.884584 -0.215376 0.413672
0.103699 0.262201 -0.108815 0.72902 -0.634456 0.256896
-0.0318357 0.388229 0.302346 0.716884 0.199748 0.667966
-0.0673566 -0.135922 -0.0561827 -0.466427 0.113837 0.877204
0.0842634 0.383883 -0.166759 0.0192762 0.131336 0.99115
-0.0183758 0.36143 -0.00339933 -0.33278 0.179403 -0.925782
-0.017395 0.230815 -0.0462235 -0.701144 0.167721 -0.693012
-0.131035 0.0950087 -0.103504 -0.299445 0.924583 0.235539
0.0918686 -0.378804 0.0594638 0.982404 0.171174 -0.074717
-0.00799421 -0.164773 -0.0415156 0.63323 -0.00236694 0.77396
-0.059857 -0.00174944 0.0340945 -0.987872 -0.151262 -0.0350622
-0.142985 0.00814557 -0.116903 -0.599558 -0.799419 0.0382038
0.0986287 -0.442059 0.0461246 0.746927 0.157572 -0.645966
0.0742439 0.379055 -0.211183 -0.775776 -0.258151 -0.575786
-0.0353063 0.276929 0.145173 -0.980715 -0.106771 0.163701
0.117823 0.343806 -0.199956 0.958485 0.284351 0.021258
0.0609652 -0.430712 0.0276888 0.119828 -0.218126 -0.968536
-0.147271 -0.0858247 -0.126802 -0.546671 -0.50384 -0.668802
0.049316 0.33608 0.129902 0.846236 0.381195 0.372258
0.0169036 0.379296 -0.000517227 -0.0891139 0.472464 -0.876833
-0.0511051 0.475628 -0.00481775 -0.351736 0.583772 -0.731773
-0.168155 -0.0419443 -0.112316 -0.859644 0.137096 0.492155
0.0140668 0.448105 -0.00686993 0.480893 0.0655549 -0.874325
0.105872 0.379779 -0.197904 0.958976 0.268766 0.0901707
0.00833275 -0.240463 0.0863232 -0.323508 -0.219062 0.920518
-0.0634936 0.119514 0.0389948 -0.938231 0.188826 0.289943
0.0861949 -0.47586 0.0834864 0.186156 -0.336324 0.923164
0.0609048 0.358774 -0.0810503 0.164475 0.929423 -0.330334
0.0278285 0.0072666 -0.0207222 0.0821036 -0.940964 -0.328398
0.0679667 0.343806 -0.199111 -0.874893 0.0136907 -0.484123
-0.0278521 0.0486233 -0.104349 0.548308 -0.15595 -0.821607
0.00570717 0.330527 0.281582 0.861305 0.397663 0.316255
-0.0607021 -0.134232 -0.113161 0.65499 0.0665612 -0.7527
-0.028018 0.174561 -0.0482757 -0.624052 0.0202161 -0.781121
-0.146909 0.0494381 -0.0709101 -0.310205 0.163385 0.936525
0.0910236 -0.379528 0.0651979 0.961616 0.155526 0.226067
0.0588526 0.266305 -0.158912 -0.963104 -0.205501 -0.17378
-0.00675685 0.350566 0.113062 -0.507216 0.861616 -0.0186947
0.0773826 0.192306 0.0960409 0.693183 -0.0068295 0.72073
0.010566 -0.126868 0.0875002 -0.0374616 -0.0867968 0.995521
0.0618705 0.409717 -0.188729 -0.897594 0.0363628 0.439321
-0.0492038 -0.0844968 -0.0971056 0.755621 0.560652 -0.338682
0.133033 0.313385 -0.183418 0.892794 0.422482 0.156293
0.100319 0.104666 -0.0046065 0.980026 0.00208583 -0.198856
-0.045414 0.274997 0.228829 -0.705603 0.24583 -0.664599
-0.154997 0.00525025 -0.128733 0.229904 -0.965763 -0.12019
0.0419523 -0.366974 0.0238392 -0.249464 0.479712 -0.841216
0.0104151 -0.0872733 0.093687 0.129313 -0.257669 0.957541
0.0692946 -0.364801 0.0870174 0.412248 0.0120407 0.910992
-0.0518897 0.398611 0.25756 -0.365038 0.498888 -0.78604
0.0480485 -0.195556 0.0175903 0.716044 0.0650701 -0.695016
0.0946451 0.282482 0.0416883 0.909427 0.113564 0.400058
-0.03972 0.147762 0.0954373 -0.868679 -0.00740014 0.49532
-0.0321677 0.285379 0.179818 -0.945262 -0.151217 0.289161
-0.0862789 -0.0628886 -0.12644 0.65286 0.320383 -0.686388
0.029277 0.0262153 -0.0650553 0.353697 -0.707202 -0.61218
-0.0323186 0.0808848 -0.10628 0.405017 0.101452 -0.908663
0.0330192 0.27379 0.25599 0.990418 0.130875 -0.0440898
-0.0154937 0.370605 0.261785 0.853801 0.387488 -0.347674
-0.0393956 0.407544 -0.00910319 -0.197388 -0.263376 -0.944283
0.0701396 0.17951 0.10099 0.674595 -0.000808453 0.738188
-0.161938 0.0728572 -0.154929 0.144457 0.447202 -0.882691
-0.0230838 0.391851 0.0676725 -0.284876 -0.134756 0.949045
-0.0512296 0.359499 0.248265 -0.578802 -0.0796926 -0.811565
-0.120894 -0.059931 -0.143823 0.255575 -0.0143201 -0.966683
-0.0615546 0.0291729 0.00569968 -0.974012 -0.154671 -0.165464
-0.0978677 -0.223079 -0.0848528 -0.81151 -0.140505 0.567195
-0.0480372 -0.0843158 0.0622403 -0.953489 -0.172646 0.247085
-0.111418 -0.0479801 -0.078817 0.186068 0.308993 0.932685
0.0568608 0.36312 -0.0461028 0.0703057 0.970474 -0.230731
0.0665181 0.309763 -0.132838 -0.322331 0.806889 -0.495009
0.0991116 0.313143 -0.0169799 0.955585 0.271674 -0.114242
0.0102944 -0.230322 0.0105736 -0.32525 0.0228001 -0.945353
-0.0573446 0.134483 0.0493387 -0.944464 0.0335488 0.326899
0.089575 0.202205 0.0797744 0.878039 0.0682149 0.473703
0.0185937 -0.350556 0.0262479 -0.414514 0.161091 -0.895671
0.100077 0.0743058 0.0228905 0.979891 -0.196502 -0.0346396
0.035494 -0.483103 0.102318 0.0348119 -0.925576 0.376958
-0.0301306 0.488907 0.00488484 -0.145232 0.891881 -0.428318
-0.106257 -0.0688641 -0.139719 0.382406 -0.00533738 -0.923979
-0.112927 -0.137129 -0.119559 -0.210758 -0.779698 -0.58962
-0.00944281 -0.172982 0.0175374 -0.63525 -0.227853 -0.73793
0.104785 0.290207 -0.00865051 0.963466 0.103647 -0.246964
-0.0360759 0.132069 -0.054553 -0.637306 0.622536 -0.454191
-0.0500583 0.288759 0.0438461 -0.918221 0.28002 -0.280106
-0.22284 0.0341072 -0.116782 -0.868082 -0.00845656 0.496348
0.0208269 -0.384357 0.0456267 -0.956136 -0.28879 0.0490431
-0.0620601 -0.202075 -0.0663228 0.160517 -0.702714 0.693128
0.101043 0.360223 -0.230739 0.180499 -0.0664173 -0.98133
-0.0642179 0.0802813 0.0246899 -0.912844 -0.271687 -0.3048
0.058249 0.455589 -0.241362 -0.103567 0.99307 0.0555455
-0.230445 0.0435231 -0.141288 -0.977032 0.201802 -0.068448
0.0105056 -0.136646 0.00921555 0.00409029 -0.0375955 -0.999285
0.058249 -0.218734 0.0333928 0.793503 0.126072 -0.595364
-0.0287575 0.486734 0.000750296 -0.0689089 0.848507 -0.524678
-0.223081 0.0225335 -0.154808 -0.817441 -0.26387 -0.512018
-0.0629051 0.0517921 -0.000728481 -0.998251 -0.0558419 0.0194152
-0.0460516 0.107442 -0.0442921 -0.816057 0.570637 0.091781
-0.0567637 0.325215 0.2543 -0.812955 0.0912081 -0.575139
0.055895 0.238661 0.12278 0.895427 -0.107421 0.432055
0.0385722 -0.1119 0.0830941 0.808606 0.128806 0.574078
-0.0665719 0.107684 -0.00249396 -0.958365 -0.254373 -0.129735
0.028251 0.228159 0.19696 0.802428 -0.583748 0.123889
-0.0442695 0.251095 0.105215 -0.899597 -0.212239 0.381679
-0.182882 0.0759958 -0.151549 -0.050976 0.747752 -0.662018
0.0300014 0.164904 -0.0749541 0.0989578 0.14848 -0.983952
0.0671821 0.10702 0.0955581 0.656424 -0.156742 0.737929
0.0260781 -0.400774 0.081736 -0.891166 0.0354826 0.452288
0.0677856 0.183252 -0.0500261 0.645367 -0.306575 -0.699652
0.102854 0.146313 -0.00217708 0.985625 -0.120423 -0.118502
0.0357958 -0.240825 0.0871079 0.104 -0.0539308 0.993114
-0.00189797 0.110702 0.12109 -0.3395 -0.00772837 0.940574
0.00127083 0.164179 -0.0628824 -0.499858 0.142036 -0.854381
0.0653109 0.353704 -0.0878708 0.319967 0.866457 -0.38324
-0.0489473 0.232505 0.0234827 -0.965869 0.139976 -0.217955
0.0250519 0.104968 -0.0938462 0.373139 0.269839 -0.887668
0.131343 0.29745 -0.210217 0.654224 -0.0885039 -0.751105
0.0663974 0.349117 0.0778429 0.800075 0.551217 0.236728
0.0603616 0.247232 -0.144426 -0.949148 -0.26761 -0.16584
0.108527 0.375916 -0.1973 0.948427 0.291681 0.124131
0.0278285 -0.222355 0.00858178 0.240002 -0.0692235 -0.968301
-0.0245927 -0.0866094 0.0084158 -0.567978 -0.240218 -0.787208
-0.0535043 0.0847478 -0.00849961 -0.969193 -0.0546777 0.240156
-0.055549 0.107986 -0.0473703 -0.721892 0.672829 0.161781
-0.0573748 0.36988 0.0482372 -0.796712 -0.447457 0.406241
0.0551708 0.304935 -0.136218 -0.655609 0.625072 -0.423629
-0.0500394 0.0931979 -0.00650779 -0.704732 -0.600405 -0.377976
-0.062211 0.133034 0.0409414 -0.958243 0.0865995 0.272527
0.0249916 -0.405361 0.0509835 -0.983089 -0.177579 0.0447362
0.0230601 -0.48262 0.0708715 0.0342812 -0.968972 -0.244781
0.00217621 0.0366724 -0.0863014 0.398108 -0.462892 -0.791985
0.0281906 -0.319653 0.0174695 -0.481712 -0.255321 -0.83831
-0.00434251 0.493977 0.0220266 0.356194 0.934279 -0.0157383
-0.00557986 -0.137009 0.0803478 -0.52956 -0.0795944 0.84453
-0.0534289 -0.0210452 0.0728634 -0.873455 -0.0679123 0.482146
0.0752097 0.0884296 0.0855386 0.710587 -0.150753 0.68727
0.0278285 0.449553 0.0384365 0.930714 0.248763 0.268121
-0.0372076 0.0852306 0.0951356 -0.740674 0.0746495 0.667705
0.0372444 -0.386771 0.0878926 -0.599612 -0.00291524 0.800285
0.037184 0.227676 0.168109 0.840655 -0.367136 0.398133
0.104544 0.130258 0.026677 0.999603 0.0254504 -0.0121174
-0.0918017 0.40851 0.32166 -0.705362 0.677554 0.208291
0.0756926 0.0089868 0.0455512 0.694429 -0.694838 0.186999
-0.0037691 0.0163618 0.114631 -0.301737 -0.303283 0.903866
0.0295788 0.417201 0.0260197 0.995466 0.0143855 -0.0940234
0.0577058 0.305901 -0.138149 -0.478123 0.759407 -0.441248
0.0530582 0.203171 0.121935 0.852862 -0.0500734 0.51973
0.0822112 0.377365 -0.224703 -0.510716 -0.192737 -0.837867
-0.0534892 -0.0412803 0.0665559 -0.905354 -0.20531 0.371729
-0.0541758 0.196893 0.00419072 -0.960294 0.221139 -0.170099
0.0156964 -0.483103 0.0704188 0.00427607 -0.962627 -0.270797
-0.037366 0.1037 -0.0979506 0.136263 0.661731 -0.737254
0.0637416 0.341391 0.0989985 0.777735 0.506442 0.372351
-0.0977771 0.403198 0.282065 -0.852931 0.419584 -0.310578
0.0839013 -0.488656 0.0676122 0.131988 -0.774148 0.619092
-0.166042 0.0218544 -0.165673 0.270861 -0.061555 -0.960648
0.0738215 0.351531 -0.0733848 0.529522 0.771025 -0.353732
-0.0709328 0.401991 0.00793293 -0.786276 -0.198745 -0.585039
-0.00736044 0.355636 0.268786 0.821212 0.527415 -0.217817
0.120961 0.269203 -0.204181 0.141905 -0.682526 -0.716953
-0.0699369 0.41358 0.00408509 -0.733407 -0.100779 -0.672278
0.0233619 -0.379287 0.0205893 -0.660256 -0.319316 -0.679778
0.0454531 -0.13556 0.0237204 0.656481 0.0916934 -0.748749
-0.0428945 0.0747283 0.0899448 -0.794829 0.0336978 0.605897
-0.0550208 0.262925 0.0719278 -0.99374 -0.00309374 0.111671
-0.0113742 0.350807 0.0992399 -0.61937 0.784118 0.0392364
0.0698378 -0.211491 0.0591017 0.882212 0.412148 0.227677
-0.0302513 0.334148 0.0837882 -0.87122 0.438688 0.220293
-0.0846794 0.0741247 -0.125836 0.090099 0.391502 -0.915756
0.0294582 0.427824 0.0342378 0.985603 -0.0209635 0.16777
0.0987495 0.2721 -0.0621581 0.888834 -0.45057 0.083435
-0.213061 0.0672439 -0.12982 -0.690264 0.633621 0.349371
-0.0278068 0.273066 0.182112 -0.959174 -0.179806 0.218301
0.00130101 0.101226 0.123504 -0.303472 -0.0144323 0.952731
-0.0472403 0.226107 0.086112 -0.884702 -0.131087 0.447346
-0.141839 0.0665196 -0.150704 0.361337 0.319306 -0.876059
-0.0357364 0.284896 0.138412 -0.986097 -0.026364 0.164065
0.123134 0.317248 -0.160723 0.509427 0.597588 0.619171
-0.0537156 0.253268 0.0797744 -0.968003 -0.124128 0.218088
0.105147 0.325215 -0.0823781 0.891393 0.403251 0.206897
0.0901786 0.215605 -0.0389805 0.82336 -0.180769 -0.53796
-0.028516 0.0136834 -0.0501468 0.162702 -0.985251 0.0529966
-0.0408329 0.0533917 0.0929023 -0.741245 -0.0780474 0.666681
-0.00944281 -0.458235 0.061848 -0.3904 0.749912 -0.53406
0.0101133 0.463315 -0.00680958 0.660933 0.30465 -0.685825
0.038029 -0.164411 0.0820982 0.421738 0.246708 0.872509
-0.215959 0.00913015 -0.143944 -0.728038 -0.666927 -0.158648
-0.0944574 0.00794939 -0.0691597 -0.142789 -0.900211 0.411378
-0.0254679 0.133397 -0.06753 -0.456689 0.71195 -0.533444
-0.0269165 0.193755 0.114631 -0.86934 0.0154294 0.493974
0.0013915 -0.0611985 0.102439 -0.00683953 -0.177626 0.984074
0.0484106 0.102614 0.110467 0.585174 -0.149448 0.797017
-0.0309152 -0.116728 -0.0774891 0.707146 0.680752 -0.191104
-0.0521613 -0.0590257 0.047362 -0.990293 -0.128116 0.053906
-0.155721 0.00151983 -0.0946912 -0.301775 -0.810908 -0.501359
-0.0736338 0.466936 0.00633344 -0.781062 0.456504 -0.426084
-0.146728 0.0555645 -0.0725397 -0.332105 0.214301 0.918576
0.0313896 0.248077 0.224 0.99657 -0.0512823 0.0649439
-0.0771949 0.375433 0.273132 -0.671889 -0.317638 -0.669083
0.0766583 -0.271608 0.0534883 0.991874 0.126352 -0.0148758
0.0707432 -0.252776 0.0426691 0.917027 0.143352 -0.372173
0.110218 0.175647 -0.00355023 0.987756 -0.12339 -0.0954658
-0.0255736 -0.0650615 0.0836373 -0.577237 -0.267145 0.771642
-0.0170178 0.018414 -0.0179155 0.100552 -0.844616 -0.525845
-0.0931296 -0.19954 -0.0879311 -0.942076 0.281729 0.181994
0.0342868 -0.203161 0.095377 0.316277 0.0835577 0.94498
-0.00956349 0.148365 -0.0599852 -0.482014 0.36575 -0.796171
0.112028 0.376882 -0.21915 0.854645 0.220026 -0.470288
0.00706521 0.35974 -0.00466686 -0.461156 0.543349 -0.701504
-0.032809 -0.19459 -0.0804467 0.649491 -0.723137 0.235021
-0.105835 0.0299123 -0.0546737 -0.452456 -0.152402 0.878668
0.0708639 0.336562 -0.180038 -0.886773 0.205152 0.414182
-0.00850724 -0.00628763 -0.00457632 0.211939 -0.440967 -0.872141
-0.00717932 -0.483586 0.0823094 0.0695217 -0.886073 0.458302
-0.00666629 0.333665 0.29462 0.679525 0.445036 0.583257
0.068691 0.263408 0.108233 0.846437 -0.0264219 0.531834
0.037184 0.343081 -0.0869654 -0.570811 0.52685 -0.629766
-0.0390976 0.132069 -0.0483361 -0.696823 0.571133 -0.433871
-0.0168366 -0.193745 0.0354714 -0.813367 -0.30588 -0.494845
0.103699 0.318938 -0.160723 0.20332 0.5775 0.790667
-0.0744939 0.386298 0.270718 -0.707741 -0.0434312 -0.705136
-0.189642 -0.0300537 -0.142978 -0.556716 -0.615245 -0.558158
0.0733386 -0.375665 0.0774506 0.629153 -0.0382107 0.776342
0.0236637 -0.370354 0.0703887 -0.724466 0.163806 0.669564
-0.166103 0.00590289 -0.110022 0.0278669 -0.994429 0.101658
-0.0832308 -0.241549 -0.130665 0.334072 -0.741632 -0.581703
-0.109788 -0.236962 -0.103624 -0.992389 -0.119393 0.0301433
-0.0210014 0.0826352 -0.102659 0.0877053 0.0861863 -0.992411
-0.0408857 0.486251 0.00423599 -0.283933 0.828767 -0.482211
-0.0405876 -0.210525 -0.101331 0.667943 -0.738078 -0.0953541
0.0229998 0.252061 0.292205 0.585368 -0.560457 0.585861
0.0666992 -0.388703 0.0780843 0.384009 -0.22538 0.8954
-0.179744 0.0843856 -0.137546 -0.305651 0.929377 -0.206968
-0.154212 -0.0706748 -0.124991 -0.665161 -0.499611 -0.554932
0.0491349 0.0411389 0.097731 0.630104 -0.124047 0.766539
-0.0222991 0.323284 -0.00819782 -0.839997 0.443266 -0.312924
0.0529979 0.148486 0.112398 0.705384 -0.133822 0.696078
-0.023627 -0.196522 0.0653186 -0.833692 -0.18117 0.521665
-0.00268267 0.29407 0.225328 -0.2656 0.913492 0.308202
-0.0303267 0.318455 0.0272716 -0.764519 -0.430431 -0.479833
-0.0562129 0.304935 0.248627 -0.632359 0.185816 -0.75206
0.0733386 0.14909 0.0983346 0.644048 -0.0713472 0.761651
-0.107495 -0.100009 -0.0714533 -0.440657 -0.383698 0.81154
-0.0947291 0.391851 0.300414 -0.780628 -0.62069 0.07324
-0.0192359 -0.179139 -0.0692804 0.651441 -0.744751 0.14481
-0.0114648 0.404647 -0.00940499 0.108681 -0.355915 -0.928177
-0.0479382 0.25689 0.102016 -0.919486 -0.148944 0.363816
0.0804006 0.133759 0.0913933 0.717858 -0.114274 0.686747
-0.0560847 0.138587 0.0526131 -0.963927 -0.0507841 0.261278
-0.00102278 0.457038 -0.0146562 0.242385 0.212529 -0.946616
0.0703811 0.352014 0.0475732 0.836256 0.523009 0.164733
0.0159379 0.146555 0.131351 -0.275768 -0.176111 0.944953
0.0313896 0.282482 0.251524 0.92631 0.3498 -0.139961
0.0191369 0.341874 -0.0597438 -0.749278 0.523657 -0.405421
-0.0196433 -0.460167 0.0879831 -0.143024 0.897762 0.416614
-0.0525046 0.0834199 -0.121732 0.259824 0.365002 -0.894016
0.0467206 -0.134111 0.0710224 0.866048 0.225042 0.446449
-0.0187229 0.487458 0.0501686 0.112941 0.883455 0.454699
-0.176243 0.0117746 -0.0866636 0.154098 0.685882 -0.71121
-0.141718 -0.0694676 -0.0849132 -0.587498 -0.268394 0.76342
0.0765979 -0.275229 0.0499121 0.979507 0.112048 -0.167364
0.102371 0.356601 -0.230015 0.109479 -0.066913 -0.991734
0.105389 0.179148 0.0231885 0.94449 -0.0487552 0.324904
0.0711053 0.305176 0.101292 0.886201 0.131082 0.444371
-0.140873 -0.00356394 -0.120766 0.104895 -0.763864 -0.636795
-0.0305832 0.1474 -0.0438092 -0.605701 0.326689 -0.725535
0.0496781 -0.170568 0.0325893 0.866898 0.141226 -0.478061
0.0482295 0.108046 -0.0796017 0.530269 0.244403 -0.811839
-0.0561299 0.188805 0.0367087 -0.991165 0.132637 -5.51963e-05
0.0317518 -0.228753 0.0927212 0.230384 -0.183457 0.95565
-0.0964492 0.396679 0.320453 -0.84123 0.516266 0.160632
0.0256555 -0.406569 0.0807401 -0.904482 0.0786145 0.419204
-0.0642179 0.424444 0.300655 0.297681 0.940799 0.16212
-0.0972641 -0.0714595 -0.0687372 0.106416 0.305087 0.94636
-0.114677 0.0928358 -0.0821367 -0.313991 0.800777 0.510064
-0.0252114 0.28055 -0.0322506 -0.86786 0.167183 -0.467835
0.0465999 0.181442 0.137447 0.488302 -0.209761 0.84709
-0.0391164 0.348393 0.0391457 -0.985987 0.166821 -0.000454788
-0.0691522 0.107563 0.0328232 -0.957589 0.198497 0.20886
0.0452117 -0.188555 0.0802572 0.740412 -0.0606694 0.66941
-0.104024 0.0343184 -0.144547 0.358209 -0.333995 -0.871857
-0.0497056 0.490355 0.0255425 -0.308766 0.950664 0.0300387
0.0800384 -0.289715 0.0567024 0.997353 0.0308213 0.0658605
-0.18747 -0.00852086 -0.150704 -0.2229 -0.678192 -0.700266
-0.0436753 0.130016 -0.0447749 -0.713478 0.570102 -0.407349
-0.0801525 0.0201191 -0.109902 0.301573 -0.668337 -0.679985
-0.0278521 0.237454 0.130083 -0.861917 -0.25956 0.435577
0.067001 0.356119 0.0532922 0.819914 0.54807 0.165412
-0.0416477 -0.0381417 0.0823698 -0.660971 -0.20052 0.723125
0.0607237 0.196048 -0.069884 0.466098 -0.328116 -0.82164
0.0584904 -0.187227 0.04703 0.99914 0.0106454 0.0400732
-0.0360985 0.286827 0.143 -0.990952 -0.0458269 0.126153
-0.0338275 -0.0696487 0.0775109 -0.591355 -0.240334 0.769765
0.00480179 -0.317963 0.0563252 -0.695796 -0.548612 0.463565
-0.0621506 0.461383 -0.00741316 -0.513969 0.252529 -0.819796
0.0447891 -0.399084 0.0800158 -0.235018 -0.253069 0.938468
0.023543 0.358533 -0.013962 -0.275316 0.925899 -0.258673
-0.0366418 0.296726 0.155313 -0.993804 0.0820492 0.0749733
-0.0176515 -0.165739 0.0241731 -0.755495 -0.281339 -0.591671
0.086557 0.312902 -0.15179 -0.336628 0.865855 0.370103
-0.0203073 0.363362 0.00990967 -0.0582467 0.111849 -0.992017
-0.00865811 -0.0252854 0.105698 -0.0710122 -0.136648 0.988071
-0.0323487 0.195686 -0.038377 -0.765521 0.120893 -0.631951
0.0139159 -0.483103 0.0731953 0.010839 -0.964313 -0.264544
