ply
format ascii 1.0
element vertex 817
property float x
property float y
property float z
property float nx
property float ny
property float nz
element face 0
property list uchar int vertex_indices
end_header
0.0794451 0.102297 -0.0538272 0.750775 0.137757 -0.646034
-0.144704 0.0158419 -0.12287 0.175463 0.975324 0.133999
-0.130219 -0.117628 -0.104644 -0.553322 -0.633444 0.540909
0.0524676 0.447151 -0.232591 -0.395701 0.739714 0.544283
-0.0456241 0.170616 -0.0329754 -0.80117 0.0278066 -0.597791
0.0129065 0.198016 0.141715 0.0387329 -0.469711 0.88197
-0.00655717 -0.14551 0.0114214 -0.460867 -0.10502 -0.881233
0.0745566 -0.465379 0.0400511 0.0032955 -0.320482 -0.947249
0.0968266 0.206224 0.0350192 0.93971 0.019786 0.341399
0.0210843 0.311961 0.194463 0.669068 0.487605 0.560882
0.093809 0.0952959 0.0536908 0.898819 -0.116003 0.422691
0.0822213 0.0856395 0.06896 0.790213 -0.17183 0.588251
0.0816178 0.406111 -0.237178 0.190538 -0.439043 -0.87803
0.0236794 -0.212502 0.100313 -0.166261 -0.00568698 0.986065
0.0666503 -0.409854 0.0326655 0.134231 -0.298032 -0.945071
0.00732389 0.362175 0.119928 -0.246973 0.961603 0.119681
-0.00755297 0.47781 0.0581569 0.286986 0.636151 0.716206
-0.0294609 -0.0907707 0.019056 -0.780798 -0.196214 -0.593173
-0.0525722 -0.114912 -0.091306 0.778922 0.121001 -0.615336
-0.0566196 0.148647 0.0760212 -0.93266 0.0200957 0.360197
0.0559076 0.345034 0.102244 0.826521 0.423126 0.37125
0.0259728 0.244729 0.215466 0.952418 -0.299063 0.0588327
-0.0410448 0.306167 0.0358943 -0.887918 0.30497 -0.344376
-0.0179487 -0.457171 0.0817849 -0.162801 0.985796 0.0412436
0.00988884 -0.480105 0.0530118 -0.144403 -0.753375 -0.64154
-0.036492 0.177013 -0.0449553 -0.647293 0.0948737 -0.756314
0.0128461 0.439909 0.0593337 0.696182 0.0244781 0.717448
-0.00586315 -0.237367 0.0232392 -0.761269 -0.014065 -0.648284
-0.0477445 0.0494582 -0.111886 0.561177 -0.420113 -0.713152
-0.0240141 -0.135371 -0.0520166 0.589023 0.229435 0.774863
0.0566318 -0.200793 0.0321072 0.897628 0.129412 -0.421327
-0.0518536 0.122153 -0.0800201 -0.100147 0.990629 -0.0928721
-0.0363638 0.0483417 0.100796 -0.628223 -0.179147 0.757128
-0.148023 -0.0973492 -0.108144 -0.928592 -0.336309 0.156885
0.0741341 0.314134 -0.198432 -0.823553 -0.138034 -0.550188
-0.00942391 -0.0122447 0.106409 -0.0915916 -0.132949 0.986882
0.0131177 -0.0554042 0.0998906 0.283393 -0.105808 0.953149
0.0580803 0.348173 -0.0963153 -0.0021437 0.749803 -0.661658
0.0204204 0.22107 0.190721 0.403348 -0.882051 0.243507
0.0615808 0.196809 0.104719 0.650579 -0.0260436 0.758992
0.126641 0.314134 -0.214365 0.701827 0.0983046 -0.705532
0.0997235 0.322101 -0.159806 -0.0502413 0.431042 0.900932
0.0609169 0.216242 0.107555 0.713599 -0.070675 0.69698
0.000594597 0.348656 -0.0104639 -0.59078 0.573064 -0.567958
-0.199383 0.0169735 -0.161013 -0.00215191 -0.526991 -0.849868
0.0983957 0.169047 0.0452263 0.986818 0.0401546 0.156771
-0.044021 0.215397 0.0911395 -0.90675 -0.0166213 0.421342
-0.0137995 0.308099 -0.0465245 -0.791456 0.263971 -0.551286
-0.0282841 0.458256 -0.022293 -0.117121 0.112002 -0.986782
-0.025372 0.284682 0.227053 -0.18105 0.947919 0.26205
0.0139023 0.189567 -0.0651131 -0.31577 -0.0270314 -0.948451
-0.0367712 0.0537734 0.101641 -0.634798 -0.120757 0.763184
0.0460098 0.174116 -0.0706051 0.49723 -0.0715813 -0.864661
0.0629085 0.00558951 0.0441249 0.688548 -0.715967 0.115293
-0.18514 -0.00946089 -0.113576 -0.420385 -0.725399 0.545043
-0.0157307 0.384867 0.0733053 -0.330912 0.305849 0.892723
-0.037269 -0.165547 -0.0458003 0.022833 -0.432928 0.901139
0.0263349 0.259575 0.2693 0.989922 -0.109384 0.0899428
-0.0298683 0.0852774 -0.105247 0.386456 0.209963 -0.898091
-0.00740211 0.0918558 0.120531 -0.238977 -0.00230705 0.971022
-0.0732768 0.398627 0.0461769 -0.692101 -0.190957 0.696083
-0.182364 -0.0487956 -0.118042 -0.924381 -0.229043 0.305055
0.0108545 0.126558 0.126204 -0.188893 -0.182288 0.96493
0.0534332 0.0330574 -0.0555774 0.489885 -0.678915 -0.546889
-0.042233 0.161925 0.0986835 -0.838727 -0.0338323 0.543501
0.0221103 -0.478897 0.108219 0.194801 0.145396 0.970006
0.100086 0.29289 -0.0171329 0.984791 0.085157 -0.15144
0.00433647 -0.108213 0.0889064 -0.107513 -0.158308 0.981519
0.0773931 0.0847946 -0.0572672 0.774925 -0.027337 -0.631461
-0.184175 0.0165058 -0.0987897 0.351286 -0.628828 0.693667
0.0888601 0.401524 -0.235488 0.559022 -0.462131 -0.688426
0.0231363 0.262472 0.287647 0.913779 -0.198928 0.354169
0.0447424 0.385591 0.0556522 0.747718 0.636567 0.188946
0.0750393 -0.259697 0.0650069 0.972057 0.0974062 0.21358
0.0288697 0.284199 -0.10054 -0.834775 0.0346327 -0.549501
-0.0200761 0.341413 0.293682 0.518662 0.238668 0.820992
-0.0648275 0.0681373 0.0413487 -0.879992 -0.44794 -0.157997
-0.0786029 -0.170014 -0.11418 -0.0614784 0.176223 -0.982428
-0.0744537 0.101693 -0.114059 0.0324385 0.683692 -0.729049
0.0475187 0.242677 0.142379 0.920692 -0.143706 0.362869
-0.0142521 0.321618 -0.0351179 -0.838321 0.388228 -0.382749
0.0463116 0.175203 0.127954 0.692599 -0.0249485 0.720891
0.0303182 0.0168452 0.102969 0.55751 -0.401392 0.726682
0.0684006 0.244004 0.101098 0.794454 -0.0460034 0.60558
0.101413 0.312686 -0.219676 -0.28239 -0.225106 -0.932514
0.0415437 -0.128491 0.0771377 0.853307 0.0509285 0.518915
-0.199504 0.000144597 -0.15015 -0.505325 -0.517937 -0.690208
-0.0461163 0.259817 0.113651 -0.90407 -0.167247 0.393301
0.0981543 0.322583 -0.12625 0.321127 0.899262 -0.296994
0.0649002 0.385591 -0.189862 -0.994031 -0.0458559 -0.0989939
-0.00863934 -0.483484 0.0710119 -0.0401897 -0.988698 -0.14443
0.0139627 0.0776126 -0.101023 0.351558 -0.132958 -0.926676
0.0267574 0.277681 0.266162 0.990459 0.137682 0.00581191
0.0136005 0.0950545 -0.0986087 0.412493 0.136589 -0.900662
-0.0191407 -0.217088 0.0395155 -0.913714 -0.178029 -0.365285
-0.15086 0.00435983 -0.0934787 0.381024 0.681144 0.62519
-0.0190048 -0.140441 0.0702877 -0.537934 -0.0994644 0.837099
-0.0207098 0.42301 -0.0157447 -0.043736 -0.228229 -0.972625
0.0596494 -0.370263 0.0125153 0.29696 0.0757121 -0.951884
-0.0670606 -0.085158 -0.11418 0.537515 0.237545 -0.809105
0.101655 0.316548 -0.219917 -0.187902 -0.236524 -0.953283
-0.0322674 0.0633997 -0.10392 0.433069 -0.185867 -0.881989
-0.106833 0.104288 -0.0790545 -0.476667 0.749084 0.460067
-0.136013 -0.114972 -0.105972 -0.562657 -0.783845 0.262687
0.00337078 -0.241109 0.0784353 -0.6258 -0.318868 0.711827
-0.00420345 -0.483001 0.0980197 -0.306098 -0.874187 0.376962
-0.160637 -0.0326513 -0.0937805 -0.802418 0.0120371 0.596641
0.0837904 0.305685 0.0506128 0.940685 0.135272 0.311149
0.0122728 0.305926 -0.0688549 -0.740693 0.129632 -0.659219
0.0665297 0.32379 -0.169342 -0.833863 0.414561 0.364434
0.0585028 0.126196 0.10327 0.633653 -0.154295 0.758075
-0.0074323 0.192705 0.142198 -0.278986 -0.355833 0.891936
0.0368966 -0.254386 0.0840782 -0.102731 -0.150753 0.983219
-0.0816658 0.451255 0.0337669 -0.923317 0.0968732 0.371619
0.0486653 0.272129 -0.132768 -0.82328 -0.208602 -0.527917
0.10769 0.281785 -0.210502 -0.205007 -0.50521 -0.838293
-0.143799 -0.0500027 -0.148339 0.121634 -0.180378 -0.976048
-0.156774 0.0201269 -0.114421 0.139006 0.990291 -0.000649904
-0.0294308 0.261989 0.284267 -0.624487 -0.572026 0.531791
-0.0137995 -0.226866 0.0336462 -0.862067 -0.0875261 -0.499178
-0.0581284 0.274784 0.252039 -0.988378 0.105591 -0.109357
-0.0624737 0.169409 0.0465994 -0.989376 0.0833596 0.119109
0.102258 0.296511 0.00305505 0.968115 0.249197 -0.0255995
-0.0567026 0.283475 0.0690505 -0.978915 0.193858 0.0643739
-0.0184315 -0.151787 -0.0820118 0.769177 -0.00804422 -0.638985
-0.00788495 -0.0660262 0.00328137 0.0813613 -0.169671 -0.982137
0.0262745 -0.334052 0.0271979 -0.352201 -0.0426397 -0.934952
-0.0604746 0.010165 0.0621703 -0.938361 -0.0175784 0.345209
0.037138 -0.228435 0.0885443 0.284871 -0.145484 0.947461
0.0560283 0.165305 0.107616 0.772673 -0.0336898 0.63391
0.0580199 0.348897 -0.0956514 -0.0021437 0.749803 -0.661658
0.103465 0.289027 0.0104407 0.974026 0.221217 0.0483263
-0.100466 0.0524457 -0.137355 0.475686 -0.351479 -0.80634
-0.0594259 0.192826 0.0469615 -0.99406 0.100299 0.0422493
-0.0641032 0.157821 0.0336236 -0.989463 0.102842 0.101916
0.0598909 0.335378 -0.110921 -0.113464 0.719971 -0.684666
0.01523 0.354932 0.157165 0.301249 0.863969 0.403494
0.0543988 -0.328982 0.0883633 0.0424623 -0.0581733 0.997403
0.0794451 -0.295185 0.0516539 0.980072 0.196259 -0.0306651
-0.0695501 -0.1472 -0.109834 0.199913 -0.253932 -0.946337
0.0856011 0.170857 0.0807287 0.864163 -0.0234318 0.502666
-0.0926801 -0.193792 -0.072295 -0.309063 -0.0332377 0.95046
0.0986372 0.277681 -0.0254313 0.963857 -0.0478218 -0.262092
0.0248261 0.270197 0.234175 0.952123 0.304148 0.0309118
0.0976716 0.353242 -0.158358 0.113495 0.250428 0.96146
0.0546402 0.365796 0.0111347 0.483935 0.857816 -0.173085
0.125072 0.33224 -0.179481 0.88776 0.334299 0.316429
-0.134565 -0.0897447 -0.089073 -0.529463 -0.501322 0.684357
0.0267574 0.41794 0.023209 0.994456 0.0703507 -0.0781537
-0.0620211 0.322825 0.272438 -0.863647 -0.343289 0.369143
-0.150981 0.00475779 -0.0938408 0.381024 0.681144 0.62519
-0.00782458 0.232537 0.188669 -0.702704 -0.680541 -0.207537
0.0273005 0.216846 -0.0741659 -0.0420064 -0.323608 -0.945258
0.045527 -0.189085 0.0704386 0.821144 0.143183 0.552469
0.082342 0.137543 -0.0376527 0.741507 0.140998 -0.655963
-0.00728143 -0.153236 0.0128548 -0.380908 -0.141252 -0.91376
-0.0919559 -0.160719 -0.0663805 -0.658523 -0.173301 0.732334
0.0981543 0.297477 -0.0295051 0.998664 0.0332294 0.0395626
-0.0997112 -0.0440881 -0.126612 0.730186 0.454269 -0.510361
-0.034176 0.127524 -0.0677082 -0.422829 0.766341 -0.483671
0.0777552 0.439426 -0.262767 0.118797 -0.65658 -0.744842
-0.0803079 -0.120645 -0.128423 0.114529 0.0727324 -0.990754
-0.0067081 -0.250282 0.0246313 -0.889199 -0.356938 -0.286216
0.101172 0.16108 0.0155933 0.995852 -0.0431661 0.0801022
-0.0183108 -0.113524 0.0769567 -0.522905 -0.187099 0.831603
0.0634517 0.27575 -0.182378 -0.782856 -0.210121 -0.585649
0.0664693 0.304236 -0.145804 -0.269261 0.955477 -0.120675
0.0814971 0.245332 -0.11418 0.390321 -0.918018 0.0699483
0.0202997 0.281544 0.23333 0.753521 0.602866 0.262218
-0.0582792 0.205862 0.0376446 -0.9979 0.0602718 -0.0237289
0.003914 -0.483243 0.0827807 0.0892072 -0.976252 0.197421
-0.0398265 0.345276 0.304063 -0.125359 0.239665 0.962728
-0.0548052 0.0577567 -0.123595 0.513605 -0.228473 -0.827049
-0.0591619 0.112134 0.0700463 -0.921355 0.0756004 0.381301
0.137142 0.27744 -0.200484 0.760865 -0.329781 -0.558864
0.0787208 0.0198402 0.0257372 0.894498 -0.445922 -0.0320395
-0.0595316 0.484328 0.0336915 -0.511815 0.782311 0.355013
0.0270592 0.0726034 0.117272 0.546933 -0.225467 0.806244
-0.188641 0.00261905 -0.156185 -0.105875 -0.575548 -0.810885
-0.0364241 0.27406 0.287889 -0.685752 -0.406475 0.603757
-0.0660949 0.0295117 0.0177509 -0.995712 -0.0359668 -0.0852341
0.0481825 -0.148045 0.0259588 0.810047 0.265384 -0.522872
0.0934468 -0.421925 0.0538417 0.912259 0.306341 -0.271917
-0.0383478 -0.144062 -0.045921 0.215 0.0949779 0.971985
-0.0761134 0.419147 0.00939206 -0.888538 -0.215234 -0.405183
0.11107 0.31679 -0.140252 0.415469 0.905915 0.0818703
-0.0575701 0.198137 0.0639507 -0.98562 0.0429435 0.163427
0.043656 0.168322 0.132903 0.561659 -0.128097 0.817393
0.0138419 0.364347 0.121557 0.0373636 0.981992 0.185193
-0.0329162 0.312927 0.000837097 -0.91593 0.364608 -0.167728
-0.00655717 -0.14551 0.0114214 -0.460867 -0.10502 -0.881233
0.0575975 0.243763 -0.136269 -0.975454 -0.218999 -0.0229907
-0.1304 -0.220589 -0.11599 -0.962376 -0.271551 -0.00962531
-0.0162739 -0.0448425 0.101762 -0.185375 -0.169074 0.968014
-0.210126 0.00545751 -0.142907 -0.674743 -0.652323 -0.345248
-0.217972 0.0604424 -0.10561 -0.762727 0.278214 0.583818
-0.0659742 0.091373 -0.119973 0.15301 0.420957 -0.894082
-0.000159854 0.110022 0.121376 -0.249051 -0.0828431 0.964941
0.111673 0.216846 -0.00533394 0.97818 0.00334124 -0.207732
-0.0484354 0.263921 0.0184261 -0.980559 0.0566889 -0.187858
0.0862046 0.308099 -0.14508 -0.290542 0.944835 0.151236
-0.0114155 -0.224331 0.0704386 -0.756623 -0.275341 0.593051
-0.000189974 -0.105617 0.00580109 -0.243316 -0.0791229 -0.966714
-0.0114457 0.150217 0.123066 -0.269303 -0.206327 0.940694
-0.0358281 0.4556 0.067602 -0.298671 0.145108 0.94326
-0.0105103 0.362657 0.0826901 -0.570812 0.469423 0.673658
-0.0262623 0.402731 -0.00998108 0.102574 -0.42347 -0.900084
-0.146575 -0.0915553 -0.126974 -0.432665 -0.502365 -0.748619
-0.0268507 0.305926 -0.0227155 -0.854694 0.298567 -0.424684
0.0722028 0.392109 -0.2204 -0.76602 -0.395112 -0.507051
-0.182485 -0.0382037 -0.125888 -0.920192 0.205114 0.333429
0.028749 -0.00633008 0.0858586 0.757334 -0.253286 0.601906
-0.123037 -0.0139119 -0.129992 0.740843 0.499664 -0.448874
0.00569437 -0.354089 0.0352229 -0.898495 -0.300374 -0.320128
0.0528297 -0.425787 0.0291613 -0.0192589 0.0014707 -0.999813
0.0268781 0.276715 0.265679 0.992636 0.11875 -0.0239398
0.0907913 -0.430857 0.0471425 0.767181 0.196653 -0.610541
-0.162508 0.0395906 -0.159685 0.424259 0.153035 -0.892516
0.0726856 0.311237 -0.131078 -0.244498 0.796478 -0.553031
0.0540971 -0.229038 0.0870959 0.483229 0.121709 0.866993
-0.0588602 0.263196 0.0666666 -0.997137 -0.00318667 0.0755458
-0.0285557 0.170737 -0.051232 -0.621901 0.0328189 -0.782408
0.0426301 -0.190654 0.0754177 0.707939 0.184452 0.681762
-0.0401961 0.303271 0.242262 -0.108535 0.244783 -0.963484
-0.0356848 0.0927008 -0.106455 0.504651 0.371522 -0.779294
0.0817384 0.198016 -0.0420584 0.708968 -0.319897 -0.628514
-0.0671209 0.480948 0.0293876 -0.713287 0.647269 0.26882
-0.066623 -0.0939091 -0.0646302 0.314168 0.612395 0.725445
0.0781173 -0.35602 0.081815 0.787494 0.0640662 0.612984
-0.0168473 0.109539 -0.0981259 -0.0160259 0.509858 -0.860109
0.0629689 0.357588 -0.0824342 0.0983621 0.886269 -0.452606
-0.0622022 0.40587 0.267489 -0.156618 0.664239 -0.730929
-0.0388458 0.265369 -0.0144773 -0.909564 0.153262 -0.386269
-0.21254 0.0542261 -0.0961946 -0.706121 0.135522 0.695002
-0.118028 -0.0512399 -0.0752523 0.0637247 0.332945 0.940791
0.0200583 0.153476 -0.0767007 -0.0993007 0.15304 -0.983218
0.095861 0.311237 0.0198368 0.914803 0.276507 0.294414
0.0581407 0.415285 -0.199518 -0.870932 0.208068 0.445181
0.0308613 -0.387162 0.0736071 -0.862345 -0.0699314 0.501468
-0.0370804 -0.0530203 0.00593688 -0.529771 -0.22936 -0.81654
-0.0499789 -0.0250469 0.0813926 -0.746382 -0.115598 0.655401
-0.0317543 0.275991 -0.0274833 -0.885589 0.152213 -0.438821
-0.168845 -0.0359103 -0.103678 -0.743298 0.355354 0.566774
-0.176087 -0.0360009 -0.132889 -0.795401 0.0795894 -0.600835
-0.0711947 0.46236 -0.00672205 -0.567733 0.256491 -0.782235
0.09912 -0.490244 0.0555617 0.596943 -0.731566 -0.329347
-0.054179 0.237245 0.0294555 -0.967486 0.121548 -0.221806
-0.0904471 -0.13175 -0.0691567 -0.663995 0.0162258 0.747561
0.0651416 0.36314 -0.0213877 0.434835 0.899798 0.0357961
0.0659261 0.179065 0.100434 0.637994 -0.0195826 0.769792
-0.0163041 -0.139113 -0.0656562 0.863319 0.503332 -0.0365724
0.0665297 0.237969 -0.144477 0.0078676 -0.975205 -0.221163
-0.0764453 0.423734 0.286199 0.0364879 0.961527 -0.272278
0.111311 0.313168 -0.13301 0.549605 0.825097 -0.130956
0.00370276 0.0863638 -0.106334 0.251994 -0.0850609 -0.963983
0.021567 0.14732 0.134171 -0.0249525 -0.122066 0.992208
0.0128461 -0.353123 0.0271602 -0.362952 -0.0308643 -0.931297
-0.0548241 0.409008 0.0608727 -0.41827 -0.128871 0.899134
0.0461305 -0.140682 0.0372221 0.947277 0.290595 -0.134982
0.0350257 0.2673 0.179858 0.940119 -0.0461064 0.337714
-0.0529531 0.276957 0.231519 -0.852779 0.254013 -0.456339
-0.035813 0.258851 -0.0247373 -0.868055 0.0936848 -0.487549
-0.041109 0.319928 0.0566179 -0.997392 0.0308468 -0.0652527
0.0372587 0.344793 0.140689 0.777251 0.478484 0.408575
-0.0335347 -0.0782778 0.0182865 -0.759215 -0.303239 -0.575881
-0.0334895 0.129455 -0.0647509 -0.519738 0.72759 -0.447756
-0.0257493 -0.0203998 0.100192 -0.255263 -0.0785856 0.963673
0.0114882 0.415285 0.0579758 0.688493 0.14576 0.710445
-0.0775166 0.444254 -0.00236158 -0.734476 -0.0979951 -0.671522
0.00907408 0.0108855 -0.0276644 -0.1281 -0.984331 -0.121175
-0.0293402 0.207431 -0.0479126 -0.719295 0.101192 -0.687296
-0.165646 0.0179241 -0.137596 0.0379493 0.985707 0.164139
-0.0821185 0.0343701 -0.0410324 -0.686755 -0.255935 0.680342
-0.180312 0.0180749 -0.0992726 0.428954 -0.730234 0.531749
-0.0545525 0.301822 0.239969 -0.868247 0.201814 -0.453232
0.0957402 0.299408 -0.211709 -0.506053 -0.305718 -0.806503
0.0212049 0.170616 -0.0736831 -0.0569489 0.1213 -0.990981
-0.097448 -0.226141 -0.107541 0.534082 -0.818434 0.211947
-0.0488859 -0.117567 -0.0978241 0.694478 0.0494987 -0.717809
-0.171742 0.0850964 -0.156426 0.179292 0.499998 -0.847264
0.0969473 0.31172 -0.0226551 0.993178 0.111476 0.0342253
0.0159543 0.0010697 0.00491089 -0.167725 -0.733961 -0.658156
0.0198772 0.290234 0.218121 0.761973 0.620584 0.185129
0.129779 0.262472 -0.171635 0.723561 -0.650313 0.231416
0.00439677 0.160356 0.131153 -0.252824 -0.2001 0.946594
0.000956696 0.0426384 -0.0858743 0.213368 -0.49045 -0.844946
-0.0860112 -0.153598 -0.0617937 -0.555922 -0.0140988 0.831115
-0.112174 0.397903 0.300925 -0.6514 -0.66144 0.371719
-0.0590261 0.0990378 -0.0102828 -0.576898 -0.614013 -0.538681
-0.072281 0.117325 -0.0892541 -0.21298 0.968216 -0.131142
0.000866204 -0.162651 0.0822978 -0.387305 0.0452626 0.92084
-0.17826 -0.0474377 -0.110196 -0.800768 -0.0531865 0.596609
0.100448 0.311479 -0.218952 -0.28239 -0.225106 -0.932514
-0.0666079 0.064999 -0.00871368 -0.993791 0.00218626 0.111244
-0.0160023 0.120221 0.119324 -0.38886 -0.137187 0.911026
0.0798072 -0.46393 0.0851948 0.455925 -0.171918 0.873256
0.0761861 0.320893 0.0719776 0.948878 0.240606 0.204302
0.0624861 0.354208 0.0636791 0.826772 0.51955 0.215674
-0.0355037 0.469602 -0.0180985 -0.17591 0.319817 -0.931006
0.0575372 0.302788 -0.142304 -0.453006 0.857916 -0.242417
0.0533124 0.340448 0.112021 0.856036 0.326608 0.400661
-0.0327803 0.306167 0.181789 -0.89726 0.29322 0.33007
-0.0519366 0.361933 0.0201197 -0.43643 -0.565776 -0.69959
0.0072937 0.140319 -0.0798391 -0.340863 0.446549 -0.827289
0.0214464 -0.243644 0.0918637 -0.281476 -0.280314 0.917712
-0.0673321 0.115152 0.0516539 -0.920151 0.145341 0.363591
0.00958711 0.0108477 -0.0368379 0.0031794 -0.974202 -0.225656
0.0629689 0.314134 0.106288 0.869348 0.140842 0.473707
-0.123882 0.0847343 -0.138683 0.350319 0.353013 -0.867559
0.106724 0.260058 0.0248484 0.903569 0.103178 0.415834
0.027723 0.352035 -0.0687342 -0.606311 0.647401 -0.461799
-0.0934346 -0.0493991 -0.0865985 0.421015 0.642862 0.639902
0.0548213 0.274784 -0.144597 -0.919752 -0.114343 -0.375476
-0.0529079 0.0109156 0.0751159 -0.82709 0.0839989 0.555758
-0.0527193 0.328377 0.0388214 -0.983416 -0.133095 -0.123198
0.0238604 0.441116 0.0411073 0.917962 0.119202 0.378335
-0.0672416 0.146475 0.0251445 -0.982728 0.178085 0.0503235
-0.163775 0.00730955 -0.119611 0.0485393 0.996301 0.0709173
0.0392503 0.0206248 0.0925276 0.665134 -0.352165 0.658465
-0.0288423 0.29289 -0.0253106 -0.873987 0.21122 -0.437644
0.00714284 -0.310635 0.0664251 -0.560922 -0.392488 0.728917
0.0183684 -0.381368 0.0256835 -0.685621 -0.193736 -0.701705
0.0137816 -0.140079 0.0103502 0.0369108 -0.0621974 -0.997381
0.0033406 0.103926 -0.100299 0.129022 0.408395 -0.903641
0.0569336 0.00613456 0.0745124 0.647114 -0.552232 0.525627
0.0961023 0.0872087 -0.00753681 0.964705 -0.13044 -0.228755
-0.125633 -0.214071 -0.116232 -0.864595 0.480439 -0.147153
0.045527 -0.00924965 0.0551091 0.901462 -0.305329 0.306824
0.0400349 0.115152 0.113772 0.587345 -0.188403 0.787103
0.00834988 -0.262594 0.0800648 -0.631284 -0.150819 0.760746
-0.0788745 -0.133923 -0.059802 -0.503852 0.0486677 0.862418
-0.0573212 0.283958 0.0634679 -0.976466 0.21496 -0.0175142
0.100689 0.308099 -0.0487575 0.975876 0.0618725 0.209377
0.0190323 0.106521 -0.0957118 0.261356 0.231093 -0.937171
-0.0840196 -0.221434 -0.124802 0.469815 -0.765701 -0.43929
0.0613997 -0.354571 0.0867941 0.0443389 0.153223 0.987197
0.0502345 -0.159271 0.0738787 0.747024 0.140709 0.649736
-0.0596221 0.36145 0.0338122 -0.670699 -0.587016 0.453403
-0.0674981 0.143699 0.0100333 -0.98388 0.161852 -0.0760479
0.036293 -0.0418852 0.0580965 0.976862 -0.0476478 0.208496
-0.0348474 0.345517 0.244435 -0.111722 0.17277 -0.978606
-0.0830539 0.085036 0.0299534 -0.963547 -0.26753 -0.00240734
0.104552 0.206344 -0.0162577 0.907497 -0.0357579 -0.418534
-0.0677998 0.142129 0.0314056 -0.975922 0.164738 0.142962
-0.0939777 -0.0953575 -0.0756144 -0.268705 -0.233387 0.93452
-0.0363789 0.279854 0.211241 -0.597692 0.78806 -0.147397
-0.0235464 0.326446 -0.00580168 -0.856916 0.405092 -0.318739
-0.0352472 0.311479 0.0251153 -0.884331 0.327107 -0.333107
0.0510191 0.332481 -0.107179 -0.276544 0.722361 -0.633812
0.0887393 0.260782 -0.187085 -0.239789 -0.675416 -0.697362
-0.0160929 0.413595 -0.013391 0.144971 -0.36838 -0.918303
-0.0460654 0.479983 0.0524234 -0.345537 0.763282 0.545898
0.024645 0.411181 0.0414845 0.862875 0.263172 0.431494
0.0172217 0.0888382 0.123066 0.0725706 -0.131443 0.988664
-0.0184466 0.318479 0.197239 -0.649728 0.55188 0.522763
-0.054345 -0.0579088 0.046886 -0.955873 -0.247273 -0.158626
0.0152904 -0.280217 0.080095 -0.590296 -0.155339 0.792099
0.0309217 0.0224656 -0.0505078 0.275217 -0.860152 -0.429412
-0.0277258 0.321135 0.0099126 -0.891378 0.0673109 -0.448234
0.0338186 0.0015214 0.0820866 0.707878 -0.405362 0.578438
0.0375605 0.365554 -0.00904562 -0.0275983 0.970332 -0.240196
-0.0239236 0.0429402 -0.0977637 0.364686 -0.332383 -0.869785
-0.12346 -0.0171709 -0.0883488 0.498607 0.540226 0.677899
0.110587 0.257644 0.0145597 0.984339 0.156165 0.0817819
0.019334 0.356381 -0.037713 -0.519426 0.840117 -0.156205
-0.0906885 0.397903 0.271111 -0.417895 0.100096 -0.902964
-0.00553117 -0.0809936 0.0931311 -0.222042 -0.255791 0.940887
-0.0385968 0.252333 -0.0203617 -0.89033 0.128668 -0.436757
0.000292803 -0.0183025 0.105383 0.235296 -0.139007 0.961932
0.0951367 0.359519 -0.226315 -0.3409 -0.113508 -0.933222
0.0606151 0.288545 -0.181895 -0.830492 -0.0639235 -0.55335
0.0863253 0.426872 -0.24611 0.84879 -0.00111324 -0.528728
0.0127556 0.426872 -0.00823086 0.627261 -0.173837 -0.75916
-0.0618023 0.328377 0.267369 -0.987578 -0.0804943 -0.134945
0.0391297 -0.304358 0.00901486 0.0366451 -0.103981 -0.993904
-0.18345 -0.0347335 -0.128061 -0.917462 0.058624 0.393481
0.0988786 0.415043 -0.201691 0.898933 0.293575 0.325168
0.0099794 0.4795 0.0176717 0.703729 0.704669 -0.0905925
-0.213144 0.0773109 -0.117197 -0.595078 0.701981 0.391286
0.0251882 0.219622 0.177564 0.646073 -0.676868 0.35276
-0.0748611 0.411181 0.00465439 -0.891725 -0.168279 -0.42013
0.0953781 0.416009 -0.221366 0.901171 0.00745409 -0.433401
0.0198168 0.117023 -0.0896162 0.196411 0.472732 -0.859038
0.0871702 0.128852 -0.0374415 0.791395 0.129413 -0.59745
-0.033414 0.0194631 -0.0804426 0.188928 -0.83812 -0.511723
-0.223886 0.0699479 -0.122146 -0.79543 0.531131 0.291873
-0.0447396 0.0806303 -0.118404 0.454306 0.182771 -0.871895
0.0603737 0.266576 0.11522 0.869209 -0.0116608 0.494308
0.0574164 0.185463 -0.0601642 0.683531 -0.290632 -0.669566
-0.0109629 0.160477 -0.0598624 -0.431962 0.129517 -0.892544
0.0808936 0.381005 -0.220641 -0.522784 -0.171089 -0.83512
-0.0431685 0.29458 0.0136922 -0.895712 0.380203 -0.230534
-0.036575 0.392834 0.0635282 -0.396456 -0.187305 0.898743
0.021386 -0.366159 0.0700463 -0.71112 0.23257 0.663491
0.100448 0.142612 0.0353512 0.995216 0.00867549 0.0973153
-0.0299438 0.314375 0.177806 -0.840099 0.439442 0.318001
-0.157137 0.025106 -0.162703 0.538007 -0.267386 -0.799408
-0.0379329 0.299167 0.168632 -0.958715 0.163512 0.232655
0.0378622 -0.459102 0.0408508 -0.176603 -0.495497 -0.850467
0.0462512 0.1781 -0.0709672 0.482005 -0.166986 -0.860108
-0.20904 0.0868466 -0.141338 -0.552286 0.780278 -0.293508
0.0642363 -0.399232 0.0198368 0.60329 -0.180634 -0.776796
-0.100224 0.0128771 -0.0761576 -0.00767901 -0.9791 0.203232
0.00813865 0.09771 -0.101626 0.346807 0.298196 -0.889272
0.0611583 0.329343 0.103995 0.860895 0.305163 0.407107
-0.141022 0.0108855 -0.119249 0.275601 0.958849 0.0682088
-0.0164852 -0.170014 0.0724604 -0.473518 -0.0184928 0.88059
0.0276023 0.305202 0.186014 0.849878 0.301976 0.431877
0.0767896 0.265369 -0.186844 -0.441813 -0.604724 -0.662654
0.021386 0.0378705 0.110573 0.51281 -0.149926 0.845309
0.0907913 0.334412 -0.00823086 0.890497 0.454988 -0.000335723
-0.0230636 0.333205 0.240934 0.30903 0.107539 -0.944953
0.0986372 0.169529 0.0328993 0.98842 0.0151498 0.150982
0.0595891 0.303512 -0.147373 -0.206815 0.964566 0.16383
-0.0383403 0.12511 -0.0678893 -0.535361 0.746063 -0.395953
0.0703922 -0.23966 0.0733657 0.906247 0.165159 0.38915
0.0242829 0.284682 0.258437 0.855017 0.388078 -0.344008
0.0859632 0.386557 -0.167169 -0.189092 0.248987 0.949868
-0.0185673 -0.193792 0.0699558 -0.675065 -0.135631 0.725183
0.0522864 0.0826219 0.0923465 0.478997 -0.177201 0.859745
-0.101612 -0.107126 -0.0762783 -0.637012 -0.369391 0.676584
0.0640552 -0.3594 0.0245403 0.631725 0.0557046 -0.773188
-0.0777278 0.405146 0.0392665 -0.921804 -0.0672181 0.381785
0.0374398 -0.349985 0.0249366 -0.176792 -0.0647827 -0.982114
-0.0524401 0.259334 0.233813 -0.886953 -0.32763 -0.325536
0.0567526 0.00709835 0.0197123 0.585475 -0.792638 -0.170128
-0.0528551 0.473223 -0.0110373 -0.376016 0.465054 -0.801459
-0.0556275 0.0971669 -0.00829122 -0.556265 -0.669526 -0.492243
-0.0641485 0.115273 -0.0591382 -0.467554 0.862893 0.191859
0.0566922 0.271887 -0.142666 -0.920443 -0.163906 -0.354852
-0.051963 -0.0702509 0.0477913 -0.969395 -0.214654 -0.119147
0.107207 0.299891 -0.0677082 0.953215 -0.125479 0.275021
-0.00939372 0.318721 0.206654 -0.463528 0.609891 0.642787
-0.104389 -0.0523564 -0.075554 0.229728 0.516446 0.824929
-0.123581 0.0275955 -0.138321 0.274385 -0.729408 -0.62664
-0.100104 0.0688012 -0.0584139 -0.393676 0.222261 0.891975
0.0496913 -0.16603 0.0298855 0.84121 0.202126 -0.501509
-0.0221432 0.125955 -0.0781492 -0.269807 0.800442 -0.535254
-0.112657 -0.124025 -0.10561 -0.721841 -0.68703 -0.0832735
0.0889808 0.0515102 0.0114591 0.927119 -0.34135 -0.154692
-0.0594335 0.274301 0.245521 -0.92344 0.142641 -0.356248
0.00457782 -0.303875 0.0688996 -0.705349 -0.182387 0.684995
-0.058498 0.0885364 -0.0115502 -0.920476 -0.113059 -0.374087
-0.0651142 0.162287 0.0211815 -0.992059 0.124442 -0.0182445
0.0392503 -0.0335264 0.0617478 0.952254 -0.137755 0.272461
0.0423283 -0.13175 0.0525743 0.963255 0.263509 0.0519843
-0.0867958 0.444978 0.0135715 -0.981611 0.00621585 -0.190789
-0.0584226 0.436046 -0.0126064 -0.462777 -0.217267 -0.859437
-0.00679859 0.239176 0.267248 -0.115343 -0.897831 0.424964
-0.0445566 0.187394 -0.0336393 -0.774351 0.115679 -0.622092
0.00750494 0.364347 0.10146 -0.185004 0.971322 0.149358
-0.00366024 0.400559 -0.00295002 0.324319 -0.415439 -0.84984
-0.0655517 0.110384 0.0579456 -0.898072 0.153273 0.41228
-0.061923 0.0697065 0.0377804 -0.887525 -0.425312 -0.177227
-0.021253 0.10115 0.113892 -0.516303 -0.116213 0.848484
0.0830662 0.318479 -0.209778 -0.595333 -0.199052 -0.778433
0.0655037 0.300615 -0.182016 -0.887815 0.162513 -0.43055
0.0825834 0.0878725 0.0689901 0.793972 -0.192402 0.576706
0.0263349 -0.353606 0.0612952 -0.638494 0.246552 0.729066
-0.0728695 -0.0919778 -0.0645095 0.286727 0.630374 0.721399
0.0983957 0.285165 -0.0258236 0.985645 -0.0370409 -0.164716
0.0777552 -0.377264 0.0348759 0.803051 -0.0665747 -0.592179
0.0198772 0.453427 0.000987977 0.84121 0.218076 -0.494782
0.0175234 0.297718 0.214621 0.656072 0.612809 0.440494
-0.194072 -0.0234174 -0.137838 -0.739339 -0.0755747 0.669079
0.0580199 0.363623 0.0610538 0.77935 0.582015 0.232104
-0.00483716 0.486742 0.0405641 0.466419 0.804529 0.367677
-0.0659138 -0.0893826 -0.0721743 0.386206 0.675265 0.628381
0.0130272 -0.374608 0.0344459 -0.865124 -0.176193 -0.469591
-0.067649 0.48119 0.0275393 -0.690541 0.703482 0.168125
0.0835491 0.338516 0.0225621 0.843158 0.49385 0.212594
-0.0315582 0.33393 0.0974161 -0.846263 0.513699 0.141256
-0.180191 0.0148989 -0.0999364 0.461552 -0.586305 0.665744
0.0089534 0.0143331 0.109125 0.282609 -0.315414 0.905895
0.029956 0.298201 -0.100661 -0.825644 0.12356 -0.550496
-0.045775 0.155648 -0.029143 -0.788251 0.233389 -0.569377
-0.0755853 -0.0729064 -0.105851 0.823347 0.459989 -0.332431
-0.0279069 0.134042 -0.0688549 -0.437959 0.736435 -0.515612
-0.0271072 0.376659 0.269904 0.93926 0.275811 -0.204252
-0.00547087 -0.0714579 0.0949417 -0.205467 -0.253394 0.945291
0.0333962 -0.15577 0.0788879 0.403211 0.286757 0.869018
-0.168543 0.014748 -0.156788 0.463534 -0.384605 -0.798257
-0.0299739 0.0765263 0.107917 -0.569295 -0.000497255 0.822133
-0.0694595 0.10797 -0.0193055 -0.670979 -0.359914 -0.648267
0.0649605 0.386074 -0.180929 -0.92858 0.139026 0.344108
-0.0425348 0.210086 -0.0294448 -0.837559 0.188375 -0.512846
0.0423283 0.173392 -0.0728985 0.395387 -0.0299294 -0.918027
-0.120925 -0.0113318 -0.121784 0.796848 0.46214 -0.389178
0.0394314 -0.0226781 0.0564066 0.946952 -0.183536 0.263813
-0.00700982 0.195481 -0.061854 -0.390851 -0.122833 -0.912221
-0.0430327 -0.17279 -0.10404 0.894705 -0.363816 -0.259113
-0.0703196 0.0115116 -0.0742866 0.112962 -0.993556 -0.00926504
-0.00788495 0.234227 0.254091 -0.154075 -0.938438 0.309185
0.0817384 -0.389576 0.0469464 0.875137 -0.0458826 -0.481695
0.0262745 0.263921 0.276542 0.967739 -0.127564 0.217277
0.0373794 0.101874 0.113772 0.604999 -0.215606 0.766479
-0.0832652 0.0104139 -0.0908232 0.174648 -0.959109 -0.22273
-0.0369296 -0.46562 0.0686884 -0.775743 0.443047 -0.449367
-0.0317845 -0.0410403 0.000309012 -0.335251 -0.130596 -0.933033
0.0887393 0.191256 -0.033247 0.716942 -0.245663 -0.652414
0.000805832 -0.463689 0.0464032 -0.342899 -0.0503316 -0.938023
0.0156525 0.451013 0.0558031 0.750672 0.20353 0.628544
-0.16456 0.0149819 -0.0940219 0.285896 0.790334 0.541882
-0.0592901 0.0597785 0.0762626 -0.846348 -0.141503 0.51349
0.0429318 0.301339 -0.120577 -0.810435 0.163948 -0.56242
-0.0992888 -0.192465 -0.0760972 -0.479049 0.0635979 0.875481
-0.0385138 0.354691 0.0695635 -0.729715 0.292622 0.617971
0.00116793 -0.157822 0.0836256 -0.374607 0.0644056 0.924944
-0.0347041 0.307375 0.305994 -0.400785 -0.0851431 0.912207
0.0525882 0.37159 0.0442305 0.775392 0.617359 0.132802
-0.00124615 0.0181655 -0.0225947 -0.209532 -0.971551 -0.110382
-0.150256 0.0131336 -0.134217 0.0878193 0.916941 0.389239
-0.0622097 0.126076 0.0572516 -0.917261 0.121723 0.37923
0.0524676 -0.334534 0.0824185 -0.0715117 -0.0773695 0.994435
0.0853596 0.297235 0.0491945 0.924421 0.160751 0.345839
0.113725 0.353725 -0.22728 0.84455 0.0198978 -0.535107
-0.152429 0.0557047 -0.0707259 -0.272095 0.0410408 0.961395
-0.0872484 0.112617 -0.104644 0.0547973 0.921125 -0.38539
0.00940606 0.0105422 -0.0252201 -0.1281 -0.984331 -0.121175
0.0617014 -0.310635 0.0179018 0.468398 0.0745449 -0.880367
-0.0371257 0.309547 0.0310888 -0.939356 0.20293 -0.27646
-0.0612969 0.154562 -0.0116408 -0.8741 0.125613 -0.469224
-0.0458448 -0.0774329 0.0366865 -0.86622 -0.313667 -0.388942
-0.0010651 0.113341 -0.0934787 0.0398616 0.552584 -0.832503
-0.0655819 0.119075 -0.0783303 -0.25919 0.958238 0.120831
0.0311631 0.33393 -0.0906422 -0.59661 0.524357 -0.607541
-0.0312866 -0.461275 0.0776809 -0.622678 0.629066 -0.465348
-0.0200158 0.456083 -0.022474 0.0637429 0.101303 -0.992811
-0.0084281 0.18667 0.14093 -0.262671 -0.342328 0.902117
-0.0601275 -0.110023 -0.111766 0.630036 -0.131734 -0.765311
-0.151222 0.0220884 -0.136027 -0.128282 0.781382 0.610726
-0.155688 -0.0865461 -0.128181 -0.520295 -0.410658 -0.748767
0.00337078 -0.287218 0.0513069 -0.955356 0.175336 0.237806
0.0314649 0.0863034 -0.0887712 0.45221 -0.121456 -0.883603
0.079083 0.306167 0.0684771 0.964523 0.145444 0.220319
-0.0179789 0.494709 0.0295309 0.152914 0.967388 0.201936
-0.0115665 0.32717 0.195549 -0.416714 0.71571 0.560454
-0.0488588 0.245694 0.0137073 -0.980758 0.0843593 -0.176058
0.0783587 -0.321257 0.0675417 0.921381 0.055758 0.384641
-0.0286914 -0.483243 0.0928294 0.211806 -0.963082 0.166166
0.0322494 -0.31329 0.0831126 -0.456403 -0.238133 0.857315
0.0221706 0.33224 -0.0808651 -0.820864 0.286948 -0.493806
-0.171983 0.0494582 -0.0772439 -0.249311 -0.0611054 0.966494
-0.0469038 0.25692 -2.29265e-05 -0.963651 0.0777233 -0.255607
-0.0766415 0.428079 0.0115647 -0.93108 -0.164378 -0.325684
-0.00888076 0.115574 0.119686 -0.294395 -0.105508 0.949842
0.00252584 0.474189 -0.0080498 0.6329 0.514168 -0.578851
-0.065084 0.0476175 -0.0145377 -0.976595 -0.206673 0.0595717
-0.0431006 0.260541 0.213776 -0.759524 -0.138957 -0.635464
0.0321891 -0.402612 0.0827203 -0.825758 -0.128668 0.549152
0.0644173 0.0385043 -0.0451967 0.671774 -0.579396 -0.46154
-0.155266 0.0126734 -0.105368 0.365927 0.900539 0.234792
0.0114279 0.409249 0.058519 0.603202 0.097447 0.791613
0.0933262 0.260541 -0.0396443 0.967703 -0.19181 -0.163583
-0.0132865 0.449324 -0.0212066 0.195061 0.0135441 -0.980698
0.0738927 0.20043 0.0947606 0.655523 -0.0119802 0.755081
-0.148748 -0.0457176 -0.15027 0.0381096 -0.179527 -0.983015
0.0262745 0.0520232 0.109004 0.58265 -0.139808 0.800608
-0.120563 -0.109661 -0.0999364 -0.608268 -0.640159 0.469261
-0.0817262 0.420596 0.285716 -0.0745599 0.941829 -0.327719
0.0445614 0.449565 -0.242972 -0.60915 0.784977 0.112903
0.0579596 0.24328 -0.145442 -0.937169 -0.279573 -0.208694
0.0419058 -0.132112 0.0550185 0.953355 0.286795 0.0941451
0.012303 0.196085 0.141232 -0.0970991 -0.414056 0.905058
-0.177898 0.0129525 -0.10404 -0.283284 0.920701 0.268441
0.0735909 0.346 0.0367317 0.841682 0.494101 0.217799
-0.0184466 0.0525664 -0.098488 0.362246 -0.273359 -0.891096
0.0734702 0.43846 -0.200725 -0.442402 0.774952 0.451365
0.0661676 0.373038 -0.174774 -0.816293 -0.0382524 0.576371
-0.227025 0.0272938 -0.119611 -0.787098 -0.330152 0.521035
0.0291112 -0.0366648 0.0763833 0.878411 -0.00910193 0.477819
0.0954988 0.18679 0.0530269 0.970237 0.065954 0.233003
-0.0331802 -0.482519 0.0774998 -0.693202 -0.677522 -0.245836
-0.154119 0.0715774 -0.155219 0.375116 0.109101 -0.920535
-0.0353378 0.315824 0.157648 -0.956769 0.254768 0.140311
-0.0497422 0.286855 0.0300326 -0.93794 0.255781 -0.23419
-0.0158213 0.320411 0.30527 0.340366 0.322962 0.883089
-0.0380611 -0.482277 0.0691712 -0.391348 -0.79142 -0.469576
-0.0232296 -0.482036 0.0596053 -0.361274 -0.688432 -0.628922
0.0863253 0.335861 0.0197878 0.860993 0.467241 0.20094
0.0510191 0.374969 0.0301156 0.785036 0.598776 -0.1587
-0.0649331 0.41456 0.312512 0.0932163 0.571285 0.815441
-0.222679 0.0146424 -0.126612 -0.717995 -0.633108 0.289237
-0.15949 0.0183993 -0.104161 0.21417 0.933734 0.28683
0.0668918 0.412388 -0.188534 -0.692954 0.186084 0.696554
0.0428715 -0.419993 0.0889668 -0.544132 0.0437778 0.837857
0.0505363 -0.147683 0.0332916 0.941956 0.218876 -0.254584
0.0973094 0.329584 -0.0445329 0.93533 0.327162 0.134619
-0.048365 0.25692 0.229467 -0.850208 -0.416729 -0.321688
-0.161422 0.0205494 -0.15884 0.37213 -0.667446 -0.645008
0.0693059 -0.227348 0.0669985 0.91775 0.243958 0.313399
-0.064224 0.0416124 -0.0206031 -0.956669 -0.141271 0.254613
-0.0625643 0.417216 0.302856 0.563442 0.73348 0.380184
0.0663486 -0.286735 0.0258155 0.736451 0.126758 -0.664509
0.103465 0.297477 -0.0569051 0.971209 -0.0815846 0.223822
0.0106735 0.300132 0.252401 0.575081 0.462558 -0.674775
0.0840319 0.386316 -0.226073 -0.344963 -0.485099 -0.803542
-0.055752 0.1781 0.0710723 -0.947438 0.0181043 0.319428
0.0489671 -0.220951 0.0234598 0.650396 0.0922255 -0.753976
0.0136005 -0.145873 0.00884889 -0.0296263 -0.0313341 -0.99907
0.0117296 -0.230607 0.0928897 -0.474451 -0.219652 0.852437
0.0707543 -0.320774 0.0235419 0.679372 -0.0083892 -0.733746
-0.163474 -0.0261634 -0.103316 -0.815505 0.14023 0.561505
-0.0338591 0.22264 -0.0353593 -0.780717 0.212469 -0.587655
0.0155318 -0.375574 0.0265869 -0.655869 -0.154456 -0.738904
0.0722028 0.33224 0.07753 0.902542 0.369831 0.22055
-0.0778636 0.425424 0.0376219 -0.976698 -0.0346814 0.211798
0.0642363 0.256437 0.109607 0.857876 -0.0264199 0.513177
0.0556059 0.248591 0.119867 0.885902 -0.0679095 0.458875
-0.170957 -0.0486145 -0.125405 -0.745131 -0.499449 -0.441962
0.0107338 0.012085 -0.0468263 0.0439628 -0.979579 -0.196196
-0.124546 0.0297833 -0.140131 0.272419 -0.704277 -0.655578
0.106966 0.269956 0.00340208 0.987424 0.149946 -0.0501092
-0.215437 0.0468631 -0.0979448 -0.706518 0.0634923 0.704841
0.016256 0.34769 0.166942 0.523531 0.695595 0.492
-0.187675 0.0767677 -0.0918492 -0.418887 0.442422 0.792967
-0.069369 0.103806 -0.0521373 -0.664959 0.574867 0.47682
0.0689438 0.0251362 -0.0153223 0.667184 -0.641621 -0.378402
-0.193227 -0.0273705 -0.137958 -0.665745 0.0178362 0.745966
0.0347843 0.154683 -0.0753126 0.348712 -0.0240668 -0.936921
-0.0622097 0.126076 0.0572516 -0.917261 0.121723 0.37923
0.0708147 0.42132 -0.188292 -0.683518 0.383331 0.621177
-0.0278767 0.252574 -0.0382562 -0.801467 0.071698 -0.593725
0.0632103 0.336827 0.0956659 0.855887 0.354339 0.376698
-0.0876106 0.0812941 -0.126371 0.181927 0.358182 -0.915756
-0.0380536 0.295304 0.172253 -0.958212 0.148776 0.244328
0.0929641 0.16277 0.0636489 0.941182 -0.00637156 0.337841
-0.0485059 0.00775089 0.0809399 -0.77336 0.10486 0.625235
0.0113071 0.00985947 -0.0221119 -0.182166 -0.971815 -0.149639
0.0233173 -0.457653 0.0969937 -0.185402 0.549824 0.814445
0.0807728 0.0246232 0.0292178 0.913963 -0.405728 -0.00749596
0.0201186 0.0866052 0.123006 0.105113 -0.184551 0.977186
-0.0164852 -0.175204 0.0725207 -0.468328 -0.0276184 0.883123
0.0875323 0.179789 0.0766247 0.882538 -0.00870709 0.470161
-0.156714 0.0582697 -0.157875 0.444477 0.0872381 -0.891532
-0.0143728 0.31172 0.244314 0.375477 0.211566 -0.902362
-0.0654763 0.0143633 0.0272451 -0.998745 -0.0458523 0.0201415
0.0633309 -0.300496 0.0203045 0.472285 0.0732279 -0.878399
0.00741445 0.286613 0.241055 0.268169 0.915937 -0.29857
-0.163413 -0.0272347 -0.102833 -0.815505 0.14023 0.561505
0.0983957 0.174478 0.0359924 0.98566 0.0235365 0.167096
-0.0520271 0.225174 0.0815736 -0.939926 -0.0494521 0.337777
0.000322989 0.488673 0.0240823 0.551425 0.834069 0.0161053
-0.171863 -0.0401652 -0.105247 -0.747783 0.209037 0.630178
0.0429922 -0.422166 0.0914412 -0.497431 0.0617305 0.865304
0.0696076 0.41456 -0.182378 -0.692954 0.186084 0.696554
0.0753411 -0.351192 0.0853155 0.743251 0.092022 0.662654
0.0426904 0.387281 0.0390779 0.778372 0.598747 -0.188786
0.0463719 0.293614 0.146724 0.926233 0.0924117 0.365447
0.0127255 -0.137906 0.0844102 0.124381 -0.0686739 0.989855
-0.0329991 0.480465 0.0573119 -0.110879 0.755378 0.64584
-0.142471 0.0961409 -0.141218 0.169568 0.531996 -0.829595
0.0837904 -0.488071 0.0675417 -0.104845 -0.978257 0.178945
0.00346134 0.46405 0.0622306 0.548822 0.379497 0.744834
0.0671936 0.35107 0.0523328 0.844261 0.511797 0.15902
-0.0265791 0.159994 -0.0509906 -0.538129 0.123003 -0.833839
-0.0629113 0.0651197 0.0158799 -0.994695 0.0544525 0.0872777
0.0368363 -0.481312 0.0809097 0.0489476 -0.997561 -0.0497703
0.0532521 0.367727 -0.0267892 0.174201 0.983708 -0.0444068
0.13002 0.263679 -0.169221 0.694876 -0.653243 0.300699
-0.178381 0.0158947 -0.0958325 0.499129 -0.517608 0.694948
0.0364138 -0.0555852 0.0768359 0.921067 0.197118 0.335828
-0.0247233 0.0499712 -0.100419 0.338426 -0.349238 -0.873785
-0.0312263 0.321376 0.162718 -0.89835 0.356685 0.256405
0.0396728 0.277922 -0.115869 -0.861185 0.018596 -0.507951
-0.0893004 -0.112256 -0.0646302 -0.536236 0.111861 0.836623
-0.108342 0.399835 0.282095 -0.479268 -0.877528 0.0157278
0.0833077 -0.45186 0.0822375 0.631932 -0.0989036 0.768687
-0.0247082 0.308582 0.199412 -0.782995 0.376909 0.494832
0.055123 -0.447273 0.0338725 0.0632439 -0.244026 -0.967704
-0.0380536 0.124567 -0.0691567 -0.363512 0.88059 -0.304007
0.0171613 0.472016 0.0237192 0.858195 0.509604 -0.0616845
0.0652623 -0.220589 0.0759005 0.837986 0.295713 0.458621
0.0348446 -0.154443 0.0779525 0.404818 0.25891 0.876977
0.0177649 -0.0709751 0.00973154 0.442443 -0.0429104 -0.89577
-0.0940381 0.387764 0.297304 -0.558471 -0.777752 0.288466
-0.0351266 0.115333 0.105926 -0.672775 -0.106863 0.732089
-0.0288273 0.383419 0.283543 0.894572 0.381348 0.233056
-0.116157 -0.0890809 -0.137234 0.0906175 -0.539032 -0.837397
0.0794451 0.0748968 -0.0517148 0.836497 -0.222664 -0.500693
-0.0481564 0.282992 0.273645 -0.859544 -0.234015 0.454336
0.095861 0.341413 -0.218348 -0.404337 -0.08779 -0.910387
0.0729874 -0.362779 0.079069 0.742087 0.0699093 0.666648
-0.0291139 0.236159 0.243952 -0.576648 -0.800144 0.165063
-0.0870674 -0.178101 -0.118163 -0.0494029 0.247056 -0.967741
0.0375001 0.249919 -0.103195 -0.560757 -0.419095 -0.714081
-0.0448395 -0.182688 -0.0780888 0.514509 -0.805783 0.293248
0.0842733 0.257885 0.0783146 0.904022 0.0639336 0.422678
-0.163172 -0.0724839 -0.128061 -0.74336 -0.307776 -0.593877
0.020541 0.467429 0.0285502 0.89064 0.451758 0.0517294
0.00720321 0.271404 -0.0753126 -0.748704 0.184199 -0.6368
-0.0815451 0.460187 0.0209873 -0.927106 0.37467 0.00981023
0.105879 0.312686 -0.154978 0.275951 0.881927 0.382172
0.00838007 -0.454274 0.0840782 -0.596675 0.448167 0.665677
-0.0180996 -0.232177 0.046886 -0.956957 -0.290218 -0.00250469
0.0346635 -0.366642 0.0801855 -0.534575 0.452122 0.714013
-0.048124 0.145026 0.088484 -0.85195 0.0396523 0.522119
0.0740737 0.207189 -0.0596813 0.66309 -0.330935 -0.671412
-0.0253871 0.344552 0.0930708 -0.700619 0.659827 0.271589
-0.123339 -0.222037 -0.0994536 -0.829158 -0.297631 0.473195
-0.0409203 0.133318 -0.0538875 -0.657123 0.610738 -0.441802
0.0945332 0.0702496 0.0411375 0.949189 -0.20197 0.241348
0.0170406 -0.0639742 0.0975368 0.290656 -0.100636 0.951521
-0.0528023 0.00861092 0.0757496 -0.813851 0.155331 0.559928
-0.066804 0.134766 0.000474981 -0.952984 0.154337 -0.26077
0.0573561 -0.389093 0.0789785 0.317601 -0.379414 0.869008
0.0276023 0.332481 -0.0869607 -0.660083 0.456063 -0.596906
-0.0406488 0.28613 0.124997 -0.982765 0.0341058 0.181686
-0.0629943 0.114186 -0.025371 -0.916779 0.081054 -0.391084
-0.1167 -0.0151491 -0.108144 0.775053 0.631601 -0.0192934
-0.0666833 0.0711549 -0.0120632 -0.982903 0.0529315 0.176354
-0.0564234 0.220467 0.0289915 -0.976343 0.143295 -0.161926
-0.190813 0.0164907 -0.0932373 -0.0503516 -0.757121 0.651331
0.00662981 0.221433 0.215948 0.0359024 -0.997822 0.05534
-0.109036 -0.0944522 -0.132527 0.21868 -0.570401 -0.791721
-0.0315431 0.115514 0.109185 -0.619 -0.125055 0.775371
0.0189115 -0.352157 0.0272338 -0.362952 -0.0308643 -0.931297
-0.0778636 0.373038 0.31034 -0.610435 -0.433621 0.662829
0.0160147 0.219863 0.196032 0.197986 -0.951474 0.235584
-0.0398114 0.487466 0.0426312 -0.193552 0.864476 0.463918
-0.189244 0.0168302 -0.0948668 0.261108 -0.600913 0.755464
0.0615204 -0.439306 0.0291273 0.188144 -0.199571 -0.961651
-0.159189 -0.0295733 -0.0929356 -0.802418 0.0120371 0.596641
0.0206014 -0.481312 0.108943 0.01686 0.13335 0.990926
-0.0605425 0.111591 -0.104523 0.0215506 0.784631 -0.619589
-0.0643145 0.0374179 0.0380519 -0.998871 0.0294775 0.0372521
0.0149283 0.00835818 -0.0143265 -0.0666905 -0.959148 -0.274932
0.0196962 0.33393 -0.075373 -0.802238 0.375326 -0.464269
0.0227138 0.103987 -0.0950479 0.374305 0.177039 -0.910249
0.0934468 0.224692 -0.0336393 0.831076 -0.129467 -0.540879
-0.166914 -0.0115129 -0.158116 0.412501 -0.116259 -0.903508
-0.00740211 -0.479863 0.114013 -0.191135 -0.981552 0.00475952
-0.143074 -0.0666297 -0.146891 -0.114945 -0.33284 -0.935951
-0.0293402 0.280095 0.202309 -0.929287 0.363592 0.0650168
-0.0477492 -0.482036 0.0900531 -0.619692 -0.770041 -0.151722
0.0303182 -0.331396 0.0717663 -0.647272 -0.432649 0.627578
-0.0329991 -0.17291 0.0550185 -0.990344 -0.136305 0.0252932
-0.0140409 -0.218416 0.0721586 -0.691865 -0.209432 0.690986
-0.0156402 0.42639 -0.0178873 0.0940964 -0.182036 -0.978779
-0.0394644 0.491087 0.032922 -0.200557 0.937842 0.283247
0.0651416 0.194153 -0.0538875 0.669478 -0.346553 -0.657039
-0.137341 -0.043726 -0.147736 0.236281 -0.0577764 -0.969966
0.0151094 0.348656 -0.0500853 -0.646759 0.682348 -0.340741
-0.0395851 0.321376 0.305029 -0.324523 -0.146377 0.934483
0.0666503 0.314375 -0.18624 -0.918089 0.111644 -0.380326
-0.0418898 0.201154 -0.0314062 -0.813163 0.141364 -0.564607
-0.0396304 0.29627 0.13568 -0.983388 0.080364 0.162758
-0.0174508 -0.0313236 -3.80133e-05 0.0141756 -0.198916 -0.979914
-0.0652499 0.154079 0.016491 -0.988659 0.149077 -0.0181396
0.0994821 0.278164 0.031598 0.893968 0.198353 0.401842
0.0731081 0.360485 -0.201087 -0.904822 -0.0510368 -0.42272
0.0173424 0.141767 0.131274 -0.169025 -0.177163 0.969558
-0.0199253 0.253781 0.196153 -0.879606 -0.449631 -0.155324
-0.0590337 0.360726 0.0278392 -0.554313 -0.832208 -0.0129058
0.0105829 0.467671 0.0533588 0.671046 0.504884 0.542945
0.038164 -0.396577 0.0842291 -0.575932 -0.229359 0.784663
0.00741445 -0.313049 0.0644335 -0.565589 -0.441094 0.69681
-0.0201214 -0.054348 0.0945192 -0.477622 -0.253265 0.841269
0.0257314 0.427114 0.0376219 0.973824 -0.00533162 0.227243
-0.0574494 0.276957 0.0499037 -0.981438 0.0809215 -0.17387
-0.0471829 0.188842 0.0914412 -0.891093 0.0367383 0.452332
0.0406384 -0.100729 0.0262191 0.89368 0.112486 -0.434377
-0.00366024 0.32886 -0.0467056 -0.695093 0.45976 -0.55269
0.0463116 0.436287 -0.233074 -0.605317 -0.77815 0.167551
-0.0670002 0.0561271 7.25118e-06 -0.99769 0.0378364 0.0564174
-0.0386044 0.0715774 0.100494 -0.662169 -0.00239149 0.74935
0.0654433 0.437494 -0.219193 -0.457875 0.815553 0.353869
-0.0706666 0.0810528 -0.0336393 -0.90748 0.200919 0.368932
0.0474583 0.0900453 0.0985628 0.602776 -0.250793 0.757472
-0.0283142 0.0175921 -0.0828567 0.188928 -0.83812 -0.511723
0.0952574 0.236279 0.0373579 0.870676 -0.0513205 0.489173
-0.0093636 -0.00617922 0.106891 -0.0329059 -0.0190241 0.999277
0.00140935 -0.483243 0.0849534 0.11477 -0.946567 0.301393
0.0906707 0.116178 -0.0280566 0.931765 -0.00183745 -0.363058
-0.228594 0.0306735 -0.12106 -0.891242 -0.237421 0.386418
-0.0998319 0.0765866 -0.0600435 -0.52043 0.365738 0.771614
0.0747376 0.361209 -0.17248 -0.76695 -0.0624801 0.638657
-0.177898 0.0611968 -0.0805029 -0.373853 0.189259 0.907973
0.112277 0.296028 -0.0875038 0.978038 -0.156416 0.137753
0.0987579 0.100969 0.0338499 0.990475 -0.0843318 0.108846
-0.152308 -0.00430828 -0.151236 0.586312 0.110133 -0.802564
0.0297147 -0.23954 0.0920448 0.018029 -0.223356 0.97457
0.0913949 0.256678 -0.0435672 0.968724 -0.16034 -0.189383
-0.121348 -0.0443295 -0.142545 0.368854 0.123678 -0.921222
0.0376208 -0.383058 0.0914412 -0.647888 -0.0429893 0.760521
-0.0619985 0.0394397 -0.121301 0.268255 -0.639015 -0.720902
-0.0428705 0.311479 0.0999509 -0.91258 0.383682 0.141371
0.073772 -0.264043 0.0710723 0.956656 0.0612166 0.284715
0.010945 0.175444 0.13568 -0.00205433 -0.237173 0.971465
-0.0524138 0.0741122 0.085406 -0.758636 0.0498047 0.649608
-0.121408 -0.229521 -0.129268 -0.701669 -0.259699 -0.663488
-0.195641 -0.0238248 -0.138924 -0.765681 -0.0172884 0.642988
0.0359309 0.281061 -0.110438 -0.836369 0.0219922 -0.547725
0.0769103 0.210086 -0.0596813 0.66309 -0.330935 -0.671412
0.0184288 0.0855188 -0.0943237 0.527468 -0.0151264 -0.849441
0.106845 0.266818 -0.00838174 0.965944 0.130205 -0.223603
-0.0153384 -0.174721 0.0248564 -0.761065 -0.170763 -0.625796
0.0229552 -0.459102 0.0980197 0.0439713 0.556701 0.829548
0.00647895 -0.253662 0.0140166 -0.585398 -0.182535 -0.789931
-0.0390796 -0.173514 -0.05431 0.178826 -0.728738 0.661031
0.00955692 0.0108477 -0.0294146 -0.0337092 -0.98722 -0.15576
-0.163413 -0.0523262 -0.136993 -0.70117 -0.530057 -0.476865
0.0508984 0.325239 0.12542 0.863796 0.259354 0.431963
0.00886284 0.276474 -0.0735624 -0.726617 0.229005 -0.647754
0.0333962 0.11135 0.121738 0.341918 -0.109877 0.933284
-0.106833 -0.193551 -0.0821325 -0.658909 0.117425 0.743001
-0.0902057 -0.073691 -0.129751 0.560221 0.0385521 -0.827445
0.0388279 0.0699479 -0.0812875 0.511032 -0.112809 -0.852127
0.0117296 -0.114188 0.0852551 0.104339 -0.152435 0.98279
-0.0686448 0.396213 0.00128974 -0.577194 -0.228896 -0.783871
0.0194548 -0.278044 0.0118891 -0.328302 -0.0534574 -0.943059
0.0476997 0.284923 -0.130233 -0.847031 0.0756832 -0.526127
0.0957402 0.230003 -0.0312855 0.854551 -0.10977 -0.507635
-0.0824806 0.45729 0.0211268 -0.926852 0.375222 -0.0123998
-0.14054 -0.114731 -0.11249 -0.546393 -0.823255 0.153967
-0.017481 0.14744 -0.0603452 -0.432861 0.466787 -0.771195
0.0589856 -0.327533 0.0158875 0.322354 -0.102279 -0.941078
