ply
format ascii 1.0
element vertex 818
property float x
property float y
property float z
property float nx
property float ny
property float nz
element face 0
property list uchar int vertex_indices
end_header
0.0397644 0.310087 0.153675 0.89696 0.21088 0.388578
0.0253476 -0.140757 0.0794192 0.47809 0.00312794 0.878305
-0.0382541 0.118988 -0.086586 -0.0417648 0.872531 -0.48677
-0.00270197 -0.279859 0.0319008 -0.979517 -0.149339 -0.13507
0.0213664 0.287406 0.209292 0.848054 0.411313 0.334105
-0.0715893 0.0147823 -0.0604667 -0.0683556 -0.972115 0.224322
-0.0682565 0.0401476 0.0307094 -0.995193 -0.0619196 0.0758741
0.090314 0.242285 -0.161928 0.139779 -0.965856 -0.218136
0.0308369 0.211642 0.151624 0.355153 -0.616391 0.702801
-0.0528707 0.399363 -0.0110633 -0.193606 -0.355491 -0.914408
-0.0669596 0.35569 0.309787 0.0226669 -0.318168 0.947763
0.00806541 0.28258 0.245364 0.37071 0.84928 -0.375895
-0.076596 0.383679 0.036063 -0.831539 -0.440551 0.338316
-0.00692452 0.223344 0.235471 0.0418284 -0.970967 0.235527
-0.0681962 0.0276459 0.0388679 -0.988897 0.00541264 0.148504
0.00634626 -0.483263 0.0771872 0.0143062 -0.999792 -0.0145515
-0.0622395 0.14179 -0.0189654 -0.832625 0.287682 -0.473259
0.0981558 0.35376 -0.236485 -0.213845 -0.230022 -0.9494
-0.199592 -0.0330829 -0.137196 -0.770266 -0.377187 -0.514218
-0.00873416 0.356896 0.117904 -0.500626 0.865463 0.0186312
0.0670298 -0.209524 0.0624989 0.880655 0.40574 0.244584
-0.0282934 -0.13014 0.0666008 -0.586487 -0.105319 0.803082
-0.0515022 -0.482057 0.100894 -0.57455 0.789106 0.217263
-0.107963 -0.11319 -0.125493 0.110679 -0.0804923 -0.990591
-0.0856141 0.107044 -0.11367 0.0620084 0.715304 -0.696056
-0.173774 0.0118417 -0.118134 0.158779 -0.973974 -0.161754
0.00924168 -0.0996176 0.0875626 0.183346 -0.2285 0.956123
0.0915204 -0.428491 0.0505251 0.947622 0.110465 -0.299684
0.00136972 0.406843 -0.0072178 0.453059 -0.374422 -0.80904
0.100086 0.247232 0.0278894 0.881682 0.0284504 0.470986
0.00969407 0.0030347 0.0987221 0.468305 -0.279899 0.838061
-0.192715 0.0404492 -0.173751 0.112426 -0.185187 -0.976251
0.0647979 0.324564 0.0918454 0.874719 0.254238 0.41259
-0.00755789 0.151803 -0.0641463 -0.494256 0.413154 -0.764862
0.0124991 0.324805 0.190471 0.383281 0.633257 0.67237
-0.00505456 0.359309 0.0987221 -0.604274 0.78346 0.145064
0.0316814 -0.266829 0.0110144 0.186185 0.0889813 -0.978477
0.0624454 0.175208 -0.048885 0.696122 -0.141436 -0.703854
-0.039566 0.103546 0.102221 -0.685544 -0.0586668 0.725664
-0.0153997 0.326494 -0.028828 -0.72514 0.523295 -0.447588
0.0298113 0.283787 0.186369 0.934202 0.119509 0.336131
-0.106485 -0.0337766 -0.108121 0.760562 0.503165 0.41033
0.0755955 0.425663 -0.283536 0.450952 0.358015 -0.817599
0.0923649 0.304537 0.0286887 0.895263 0.207439 0.3943
-0.0405614 -0.122781 0.0631323 -0.659273 -0.0798336 0.747653
-0.148198 0.103123 -0.134059 -0.0217625 0.918976 -0.393712
-0.0118407 -0.138706 0.0758903 -0.565235 -0.118077 0.816436
-0.0721775 0.0672923 -0.0337744 -0.869646 0.0784103 0.487409
0.0403677 -0.0860453 0.0327377 0.941085 0.210868 -0.264376
0.0285446 0.0193819 0.0999285 0.552751 -0.298147 0.778187
-0.0126249 0.234806 0.27094 -0.376839 -0.86518 0.330842
-0.171663 -0.0515111 -0.148898 -0.563936 -0.418361 -0.712004
0.0220299 -0.339456 0.0557127 -0.895408 -0.0709806 0.439553
-0.025202 0.120134 -0.0908688 -0.115494 0.739316 -0.66338
0.0548448 0.23565 -0.116325 -0.531483 -0.844019 -0.0718171
-0.0391513 0.114826 0.104935 -0.643415 -0.13527 0.753471
-0.187889 -0.000433791 -0.161083 -0.509918 -0.33157 -0.793754
-0.0118407 0.352312 0.155605 -0.301901 0.834801 0.460394
-0.0876047 -0.0622785 -0.0991932 0.792607 0.586076 0.168192
0.0184106 0.360033 0.136483 0.314993 0.893792 0.319242
0.0296907 0.396226 0.0154179 0.676462 0.476648 -0.561432
-0.0417904 -0.10197 0.0383703 -0.91604 -0.157953 -0.368676
0.0242618 0.109216 0.125626 0.313038 -0.29949 0.901284
0.00984494 -0.259108 0.0853307 -0.215669 -0.340581 0.915146
0.0733636 0.294886 0.0872006 0.895017 0.166904 0.413627
-0.0674271 -0.115543 -0.0712643 0.337844 0.641106 0.68909
0.00664786 -0.349349 0.0302193 -0.916446 -0.188966 -0.352729
0.0629883 -0.472647 0.0425476 -0.120502 -0.502323 -0.856242
-0.0495936 0.155664 -0.0286169 -0.746642 0.207436 -0.632057
0.0940539 0.309604 0.0183304 0.927834 0.287532 0.23759
-0.143613 -0.232205 -0.112947 -0.794317 -0.378494 0.475187
0.0812657 0.316119 -0.164341 -0.307218 0.395382 0.865616
0.0905552 -0.385783 0.0654245 0.874895 -0.0240683 0.483715
0.00471753 0.36124 0.131296 0.0199533 0.999747 0.0103416
0.0152739 0.449309 -0.00902745 0.739679 0.135788 -0.659118
-0.0577606 0.180757 0.0751062 -0.923842 0.0716845 0.376002
-0.0531931 0.111448 -0.105708 0.385082 0.610773 -0.691859
0.0167819 0.136361 -0.0820619 0.0525351 0.295266 -0.95397
0.0907966 0.194269 0.0571605 0.97124 0.0685201 0.228031
0.0234776 0.00972665 -0.0245452 0.155426 -0.938351 -0.308773
0.0629883 0.350864 -0.193536 -0.977213 -0.0446303 -0.207516
-0.0106041 0.33132 0.280833 0.791047 0.523142 0.317123
0.0702269 0.33687 0.056316 0.891026 0.402262 0.210375
-0.0563619 0.177983 0.0789969 -0.919071 0.146262 0.365946
-0.00891514 0.370891 0.077519 -0.403602 0.547077 0.733357
0.0566545 -0.385783 0.0194929 0.581617 -0.401566 -0.707437
-0.207916 0.0188691 -0.102873 -0.558876 -0.508705 0.654887
0.0663663 0.403947 -0.197035 -0.952475 0.0103786 0.304439
0.0600929 0.285476 -0.180024 -0.96797 0.0598772 -0.243819
-0.00822146 0.47392 0.0590304 0.288352 0.532767 0.795621
-0.204297 0.0475068 -0.172906 -0.0882189 0.0480215 -0.994943
-0.0987642 -0.0515714 -0.107638 0.826456 0.541908 0.152666
-0.0418658 0.318773 0.132502 -0.922724 0.348783 0.164108
0.0934507 0.406602 -0.206928 0.502988 0.284772 0.816032
-0.0521054 0.107467 0.0859339 -0.817452 -0.0318449 0.575116
0.113719 0.304055 -0.131164 0.596048 0.799358 -0.0758544
0.0323449 -0.0865278 0.0199458 0.811771 0.0455792 -0.582194
0.0465808 -0.353692 0.020975 0.0582924 -0.0773903 -0.995295
-0.150128 0.0284452 -0.138885 0.378175 -0.86378 -0.332967
-0.192474 0.0320796 -0.0836906 -0.167043 -0.350258 0.921638
0.110944 0.216709 0.00820192 0.990346 -0.0752444 0.116417
0.0137055 0.435556 0.0554413 0.706046 0.067837 0.704909
-0.0432382 0.297299 0.144506 -0.995871 0.0211721 0.0882748
0.0330687 -0.104021 0.0824352 0.688296 -0.114406 0.716352
-0.016033 -0.0703013 0.0890103 -0.395541 -0.262001 0.880285
0.0438663 -0.318465 0.0880452 -0.247774 0.015253 0.968698
-0.124612 0.00950042 -0.107397 0.365627 -0.771008 -0.521406
-0.0583487 -0.0512095 0.047328 -0.978055 -0.173104 -0.115941
-0.0303142 -0.14691 -0.0605874 0.749838 0.367151 0.550402
0.0503811 0.0055192 0.074141 0.594185 -0.659986 0.459742
-0.0836536 -0.133036 -0.120426 0.629856 0.055556 -0.774723
0.07644 0.0551375 0.0653642 0.790991 -0.189819 0.581637
-0.0663413 0.0555296 0.0265095 -0.993164 0.116034 -0.0127339
-0.0432117 0.0238909 -0.0888179 0.278938 -0.832111 -0.479359
0.0563529 -0.251628 0.0881658 0.219683 0.286866 0.932442
-0.0157918 0.496119 0.0155819 0.0488185 0.984635 -0.167663
0.0681156 0.34435 0.0484591 0.87526 0.43773 0.205699
0.0414535 0.17943 -0.0734359 0.419194 -0.165595 -0.892667
-0.0900176 0.411669 0.301584 0.0497409 0.873625 0.484051
-0.03983 0.0536898 -0.106794 0.525373 -0.251027 -0.813
0.0879011 0.11742 -0.0297932 0.95461 0.0326822 -0.296061
0.00628595 -0.0310018 0.0967315 0.492689 -0.0912622 0.865407
-0.15423 0.0296969 -0.0786839 -0.288366 -0.475417 0.831158
0.0242618 0.452446 0.0175716 0.967687 0.235371 -0.0904612
-0.00906594 0.280891 0.235592 -0.345393 0.776143 0.527546
-0.110406 0.391159 0.281557 -0.740398 0.563916 -0.365801
0.061058 0.349658 -0.184126 -0.989416 -0.0190334 0.14385
-0.0743188 -0.165006 -0.0612509 -0.314856 -0.160705 0.935436
0.0389199 -0.150288 0.0759808 0.524536 0.307146 0.794055
0.0586451 -0.183706 0.0355804 0.961886 0.0526947 -0.268325
-0.103831 0.0750135 -0.0612509 -0.370775 0.28864 0.88273
0.000495049 -0.337044 0.034012 -0.876279 0.0144376 -0.481587
0.0809038 -0.402915 0.0285529 0.560956 0.425116 -0.710355
0.0673314 0.307433 -0.181472 -0.989467 0.138827 -0.0410186
-0.0040894 -0.303022 0.0511283 -0.934371 -0.211491 0.286743
-0.0575796 0.160007 -0.0154969 -0.839255 0.102547 -0.533981
0.00562239 -0.251146 0.0812891 -0.600502 -0.271186 0.752234
0.105756 0.246749 -0.147812 0.428057 -0.892041 0.145017
0.0590674 0.0648191 -0.0688514 0.663377 -0.220872 -0.714945
0.0207028 0.270757 0.271423 0.964652 0.216855 0.149732
0.0569561 0.349899 0.0818923 0.837107 0.466017 0.286496
-0.0223819 0.305985 -0.0292503 -0.847096 0.330189 -0.416417
0.0828341 0.226481 -0.0547965 0.862544 -0.241879 -0.444424
0.0842818 0.0648191 -0.0260231 0.927418 -0.26261 -0.26633
0.0749923 0.0956435 -0.0583555 0.779935 0.0141024 -0.625702
0.00610497 0.351588 0.162241 0.0523326 0.887934 0.456985
-0.0522845 0.387057 0.303755 0.668627 0.431591 0.60553
-0.0531177 0.330838 0.0257555 -0.995441 -0.0935203 0.0187544
0.0746303 -0.470958 0.040934 -0.07213 -0.286263 -0.955432
-0.0136202 -0.21821 0.0719694 -0.757447 -0.212297 0.617417
0.0351197 -0.19939 0.0884071 0.505415 0.117332 0.854862
-7.8024e-05 0.226843 0.25393 -0.0932951 -0.954813 0.282183
-0.0493867 0.417701 -0.0165827 -0.135993 -0.230517 -0.963518
-0.014706 -0.110777 0.0828575 -0.431505 -0.204465 0.878634
-0.0293642 0.382714 -0.00257303 0.0300994 -0.459294 -0.887774
0.0379548 0.104269 -0.0858621 0.429959 0.176547 -0.885418
-0.0685129 0.129243 0.0510981 -0.956414 0.0740524 0.282468
0.0755955 -0.35321 0.0836417 0.69321 0.0184542 0.720499
-0.0581753 0.46813 -0.0159192 -0.468322 0.470536 -0.747843
-0.196093 0.0024528 -0.153724 -0.3727 -0.582215 -0.722579
-0.0841362 0.103123 -0.11548 0.0863978 0.548383 -0.831752
-0.0475738 0.32746 0.239091 -0.0578748 -0.018034 -0.998161
-0.0012241 0.147942 0.127918 -0.210664 -0.206723 0.955451
-0.0622621 0.227808 0.0564668 -0.998652 0.0223045 0.0468774
-0.0867602 -0.0736793 -0.105708 0.830696 0.51311 -0.216016
-0.17293 -0.0778415 -0.133215 -0.736176 -0.426014 -0.525886
0.0107799 0.257245 -0.0877321 -0.748859 0.0126616 -0.662609
0.100569 0.176173 0.0175499 0.972754 -0.122907 0.196577
-0.0442674 -0.170918 -0.052082 0.147204 -0.409253 0.900468
0.0377739 -0.0932839 0.051822 0.96749 0.0466887 0.24856
-0.0630613 0.120013 -0.0698769 -0.333696 0.927354 0.169299
0.0846438 0.043043 0.0425023 0.915696 -0.31607 0.248196
0.103826 0.22624 -0.0177892 0.901587 -0.0261392 -0.431808
-0.0500232 0.257004 0.25767 -0.762175 -0.543389 0.351878
0.0290875 -0.331494 0.0250957 -0.623488 -0.186032 -0.759378
0.0339736 0.0459385 0.0961282 0.614055 -0.100598 0.782826
-0.0778175 0.103606 0.0395164 -0.927789 0.286536 0.238966
-0.142166 -0.123022 -0.111619 -0.397376 -0.758097 0.517089
0.0398851 -0.124108 0.0504044 0.975149 0.200767 0.0936881
0.0084575 -0.303263 0.071698 -0.592057 0.0474092 0.804501
0.0237189 -0.00753667 0.0104414 0.0115392 -0.784935 -0.619471
0.0191345 -0.470475 0.0463026 -0.125833 -0.432886 -0.892623
0.0672711 -0.403397 0.0294502 0.481601 0.179272 -0.857859
-0.11478 -0.122419 -0.126941 -0.604739 0.255741 -0.754246
0.00586368 0.0762199 -0.105587 0.171922 -0.192515 -0.966116
0.0777671 0.22443 0.0883468 0.84429 -0.0405786 0.534347
0.0935713 0.270033 -0.0423099 0.952383 -0.257138 -0.16385
0.0298717 -0.0784447 0.0790271 0.893624 -0.0380074 0.447205
0.0905552 0.116334 -0.0179098 0.969006 -0.0263069 -0.245632
0.0801799 0.119048 0.0756189 0.816565 -0.177398 0.54932
0.113116 0.362205 -0.206566 0.970896 0.239335 0.00894922
-0.134625 0.109276 -0.108845 -0.145762 0.986274 0.0775757
-0.0920685 -0.0714474 -0.0817603 0.562977 0.395607 0.725639
0.0870566 0.101917 -0.0306678 0.949221 -0.0286997 -0.313298
-0.0850109 0.405395 0.0280854 -0.936163 -0.0718857 0.34414
-0.0339788 0.246267 -0.0342871 -0.783734 0.123934 -0.608606
0.108772 0.322634 -0.232383 0.19832 0.0148683 -0.980025
-0.00270197 0.0549264 -0.0905672 0.159696 -0.42451 -0.891228
-0.00939773 0.354001 0.108675 -0.519053 0.853506 0.0459523
-0.0497043 0.0535088 -0.111861 0.647909 -0.205367 -0.733511
0.0020031 -0.162714 0.0839433 -0.287405 0.134185 0.948363
-0.0918574 0.110845 -0.0780203 -0.355005 0.833853 0.422683
0.0258905 0.175087 0.138293 0.00434498 -0.297663 0.954661
-0.00140509 0.225395 0.248742 0.0374015 -0.964201 0.26252
-0.0741982 -0.196012 -0.0810967 0.208069 -0.758057 0.618108
0.0660647 0.427352 -0.213442 -0.576241 0.661259 0.480295
0.086574 -0.363103 0.0643387 0.944478 0.215637 0.247917
-0.19356 -0.0358577 -0.131767 -0.827349 -0.551811 -0.10487
-0.237956 0.0591791 -0.148778 -0.880236 0.403695 -0.249429
0.0664266 0.324082 -0.188228 -0.991207 0.120136 0.0554656
-0.0433399 0.334216 0.0559842 -0.966378 -0.166213 -0.196182
-0.123647 0.012475 -0.112343 0.340979 -0.796333 -0.499587
-0.0211906 0.349899 0.117844 -0.526409 0.850229 0.00177435
-0.0127455 0.283063 0.225458 -0.433493 0.768246 0.471044
0.0570768 -0.481092 0.0926899 0.25566 -0.533737 0.806078
-0.0595853 0.359792 0.309305 0.0900446 -0.137682 0.986375
-0.12039 -0.107278 -0.129837 -0.110423 -0.35947 -0.9266
-0.169129 0.0936529 -0.100098 -0.307871 0.830493 0.464216
0.0666076 -0.35514 0.0255331 0.540998 0.143247 -0.828735
0.0429011 0.155543 -0.0632415 0.629105 0.023848 -0.776955
-0.115021 0.034598 -0.130681 0.42118 -0.702255 -0.573974
0.0330687 -0.0696378 0.0784238 0.912771 -0.114581 0.392072
0.0813864 0.378854 -0.23552 -0.179503 -0.484963 -0.855915
0.0363261 0.0402682 -0.076271 0.358427 -0.59044 -0.723125
-0.061508 0.19994 0.0547476 -0.997705 0.0303292 0.0605315
-0.0192603 0.222379 0.142817 -0.771056 -0.422472 0.476435
-0.0641094 -0.190824 -0.0733756 0.321401 -0.690246 0.648276
-0.0948131 -0.2164 -0.140212 0.377316 -0.328673 -0.865798
0.0190741 0.230462 0.204345 0.781766 -0.586531 0.211716
-0.175946 0.010081 -0.113429 0.55875 -0.828722 0.0318965
-0.185597 -0.0080117 -0.111258 -0.0497871 -0.361125 0.931187
-0.0342955 0.142272 0.110244 -0.673555 -0.103754 0.731819
0.0804212 -0.487606 0.0646705 -0.0787371 -0.996887 -0.00407466
0.0210044 0.248921 0.241262 0.979553 -0.173523 0.101809
-0.0268307 0.284752 -0.0345586 -0.842672 0.194935 -0.5019
-0.0521865 0.392607 0.253206 0.442497 0.666025 -0.600505
0.0230553 -0.241977 0.0116704 0.105473 -0.0272978 -0.994047
0.0790942 0.0539311 0.0613528 0.808417 -0.204317 0.552011
-0.0481091 -0.0855627 0.0431508 -0.958514 -0.226994 -0.172409
-0.0860363 0.43821 0.0289601 -0.951146 0.0573935 0.303361
-0.134625 -0.131467 -0.122839 -0.168937 -0.984947 0.0365899
-0.116408 -0.061434 -0.14178 0.471186 0.117456 -0.874178
0.0459172 0.364859 -0.0152557 0.0448671 0.996089 -0.076115
0.00728123 0.39502 0.00228286 0.311035 0.589168 -0.745747
-0.126603 0.0100735 -0.0989519 0.0294842 -0.999108 0.0302203
-0.0397168 0.330355 0.0652134 -0.889297 0.339666 0.306231
-0.0339939 0.120979 -0.0889385 -0.104262 0.809707 -0.577498
0.127834 0.253143 -0.173268 0.674726 -0.736795 -0.0433446
-0.00161619 0.0576408 -0.0904466 0.146392 -0.460114 -0.875708
-0.0573986 0.129605 0.0841846 -0.903099 -0.0247054 0.428722
0.0399454 -0.111139 0.04769 0.995 0.0653263 0.0755423
-0.0815122 0.414564 0.303031 0.413757 0.84127 0.347953
-0.100815 0.0110726 -0.102209 0.311755 -0.790654 -0.526949
-0.061591 0.259175 0.0703407 -0.986749 0.0235277 0.160539
-0.0511591 0.275583 0.280109 -0.77217 -0.404166 0.49031
-0.0537077 0.256039 0.098903 -0.920645 -0.167693 0.35255
0.0147913 0.452929 0.0526967 0.778069 0.289623 0.55743
0.0223918 -0.244872 0.0911819 -0.0303567 -0.350619 0.936026
-0.0213866 0.0768231 -0.102028 0.184653 0.0410756 -0.981945
-0.0385255 0.137808 -0.0564252 -0.584063 0.636 -0.504355
0.0692617 -0.239684 0.0729044 0.899017 0.120828 0.420915
-0.140959 -0.0424327 -0.0814587 -0.034955 0.0408197 0.998555
0.0898314 -0.458652 0.0788763 0.63588 -0.0247835 0.77139
0.0436854 0.069283 -0.0786235 0.534731 -0.147658 -0.832021
-0.0845585 0.0106277 -0.0828461 0.074922 -0.995646 -0.0554591
-0.125698 -0.0593831 -0.146123 0.375763 0.113001 -0.9198
0.0129816 0.443518 0.0554715 0.79069 0.0790306 0.607095
-0.0757666 0.407808 5.09572e-05 -0.731041 -0.0630964 -0.67941
-0.0430986 0.120798 -0.078141 -0.124391 0.951021 -0.282996
-0.0917066 0.0319288 -0.112705 0.23196 -0.573379 -0.785768
0.0883837 0.331803 -0.0265056 0.88268 0.464725 0.0700478
0.0362658 -0.477714 0.05333 -0.12982 -0.796327 -0.59077
-0.0125947 0.0349901 0.115069 -0.207702 -0.22773 0.951314
-0.0353436 0.079055 0.105478 -0.580805 0.0141512 0.813919
-0.0659191 0.312017 0.251637 -0.967513 0.0244766 -0.251634
0.00924168 0.0885255 0.120378 -0.00633842 -0.0819671 0.996615
0.0473047 -0.414497 0.0952837 -0.264961 0.21409 0.940192
0.0286653 0.169296 0.138233 -0.0372891 -0.251984 0.967013
-0.0752689 -0.178156 -0.0646892 -0.149707 -0.548877 0.822388
-0.172507 0.0174139 -0.0995551 0.0598197 -0.925481 0.374041
0.0369897 -0.222915 0.015957 0.350599 -0.00500551 -0.936512
0.122888 0.32939 -0.183644 0.816057 0.548153 0.183246
0.0736652 0.14191 0.0900358 0.701787 -0.0537778 0.710354
-0.0953862 -0.0548288 -0.114153 0.864662 0.452804 -0.21755
-0.0325763 0.431213 -0.0198099 -0.0943147 -0.189533 -0.977334
0.0930887 -0.48447 0.0819527 0.484101 -0.180662 0.856158
0.0850057 0.252419 -0.0758487 0.669032 -0.725056 0.16337
0.0673917 -0.48447 0.0523347 -0.199775 -0.874888 -0.441204
-0.184994 0.0999264 -0.135024 -0.202625 0.9428 -0.264708
0.0381358 -0.340663 0.017975 -0.200463 -0.185347 -0.962009
0.0710714 0.0924464 -0.0633622 0.740065 -0.010478 -0.672454
-0.115805 -0.0903281 -0.072893 0.000916145 -0.0273451 0.999626
0.0248047 0.22057 0.17141 0.640777 -0.651786 0.405684
-0.0134392 0.229618 0.25031 -0.269732 -0.906606 0.324514
-0.0564787 0.259899 0.0944392 -0.93734 -0.124626 0.325366
-0.0587483 -0.196374 -0.10788 0.646736 -0.584262 -0.490275
-0.0297261 -0.09069 0.0169731 -0.636921 -0.272519 -0.721156
-0.0578586 0.114223 0.0752268 -0.894858 0.0166155 0.446041
0.0969494 0.110664 0.0296236 0.99501 -0.0462868 0.0883922
0.054121 0.281615 0.119231 0.910918 0.0353862 0.411066
0.0735445 0.257969 0.0922677 0.84237 0.0164342 0.538648
-0.0530046 0.23758 0.0128542 -0.970061 0.140736 -0.197928
-0.0903795 0.373545 0.316544 0.0609511 -0.29196 0.954486
-0.0418658 -0.181052 -0.0926785 0.621003 -0.658444 -0.425213
-0.0315357 0.348452 0.0711551 -0.778077 0.323007 0.53876
-0.125637 -0.0187113 -0.0949707 0.541071 0.652949 0.529999
-0.0943306 -0.142808 -0.0675847 -0.531505 -0.0607129 0.844876
0.055991 0.270516 -0.16048 -0.972154 -0.136216 -0.190685
0.0573784 0.00819974 0.0214406 0.4498 -0.882346 -0.138367
0.0286653 0.17943 0.139258 0.027183 -0.330331 0.943474
0.0985177 0.290543 -0.0182416 0.988657 0.0943033 -0.116895
0.0511049 0.198612 -0.0714453 0.351011 -0.228051 -0.908176
0.041936 -0.1825 0.0214501 0.62638 0.107394 -0.772084
-0.0511525 0.146977 -0.0307885 -0.727565 0.346162 -0.592302
-0.119605 -0.0978683 -0.0790458 -0.224461 -0.175057 0.95863
0.0946571 0.307674 0.0174424 0.92883 0.271998 0.25158
0.137727 0.291749 -0.188831 0.981213 0.171145 -0.0890528
-0.0296658 0.136723 -0.0703595 -0.390201 0.717079 -0.57753
0.0821103 0.113318 -0.0453863 0.905464 0.0660751 -0.419248
0.0531558 0.434349 -0.243965 -0.457545 0.705816 0.540811
-0.0722076 0.0499197 -0.130078 0.169175 -0.443139 -0.880345
-0.032335 0.400569 -0.0129333 0.024949 -0.4279 -0.903482
-0.00330523 -0.154752 0.0091746 -0.310983 -0.00454211 -0.950405
-1.76522e-05 -0.263692 0.0524554 -0.852923 -0.424005 0.304536
0.0479682 0.225757 -0.0774774 0.0543358 -0.739942 -0.670472
0.0656424 -0.244269 0.0805653 0.559677 0.131831 0.818158
0.0581022 0.309122 -0.129354 -0.309571 0.628783 -0.713301
0.0611183 0.242768 -0.165547 -0.884477 -0.344355 -0.314835
-0.0216128 -0.160301 0.025616 -0.756253 -0.19911 -0.623247
0.0186519 -0.221467 0.0969124 -0.218878 -0.075436 0.972832
-0.0383973 0.150838 -0.0439386 -0.717898 0.192146 -0.669106
0.100448 0.30309 -0.222732 -0.0399478 -0.259231 -0.964989
0.0622644 0.348934 -0.181713 -0.879759 -0.0753546 0.46941
-0.103017 -0.0859849 -0.138764 0.530578 -0.136667 -0.836546
-0.129739 0.00939864 -0.100762 0.0903133 -0.995749 0.0181021
-0.0737157 -0.105589 -0.125976 0.656789 0.0171571 -0.753879
0.0635312 -0.470475 0.0413864 -0.153747 -0.465463 -0.871611
0.0746303 0.0567662 -0.047196 0.808893 -0.35084 -0.471809
0.0109608 -0.446588 0.073387 -0.674224 0.73506 0.0714819
0.0697443 0.140463 -0.042883 0.659303 0.215703 -0.720272
-0.169009 0.0173083 -0.155534 0.784142 -0.0694672 -0.616681
0.0608167 0.342419 -0.101063 0.0854254 0.810455 -0.579538
0.059369 0.431937 -0.28233 -0.0761537 0.337956 -0.938076
-0.0263782 0.302607 0.241262 0.422907 0.696905 -0.5792
0.0652805 0.319014 -0.171459 -0.740263 0.322991 0.589651
-0.0436793 -0.0996176 0.0658769 -0.777673 -0.159698 0.608047
-0.145785 0.0721784 -0.148054 0.376635 0.278809 -0.883409
-0.0261973 0.345797 0.130753 -0.621377 0.782762 0.0342655
0.0711317 -0.458652 0.0388981 0.203212 -0.273256 -0.940232
-0.173774 -0.0303986 -0.106552 -0.738194 0.076681 0.670217
-0.153144 0.0107634 -0.142022 0.689216 0.493708 -0.530315
0.0372913 0.309846 0.158983 0.893659 0.23991 0.379231
0.0246841 0.254108 0.210981 0.981598 -0.0578752 0.181976
0.0162993 -0.0126263 0.0936551 0.622614 -0.0869621 0.777682
0.109979 0.251937 -0.135627 0.528198 -0.834992 0.154257
-0.091797 -0.144256 -0.064448 -0.412093 -0.026247 0.910764
0.00293807 0.400087 0.0667214 0.0268148 0.47645 0.878793
-0.080155 0.012558 -0.0724707 -0.0247796 -0.978133 0.206498
0.0116244 0.332285 -0.0598032 -0.749268 0.446 -0.489572
0.106239 0.353518 -0.172303 0.448705 0.385617 0.806203
0.0877805 -0.418116 0.0405117 0.715136 0.074493 -0.695005
-0.0128662 0.139015 -0.0699372 -0.30332 0.691938 -0.655148
-0.0198635 0.17557 0.13395 -0.34472 -0.286315 0.893975
0.0348784 -0.119524 0.0802938 0.750562 0.0225189 0.660416
0.0301733 -0.0365514 0.0462272 0.944679 -0.287671 -0.157566
0.113719 0.304055 -0.131164 0.596048 0.799358 -0.0758544
-0.0600452 0.107527 -0.109327 0.192155 0.638255 -0.745458
-0.0684375 -0.193961 -0.081157 0.330598 -0.764167 0.553853
-0.0376358 0.269551 0.179975 -0.972328 -0.231897 0.0283151
-0.00969932 0.48888 -0.000552259 0.279464 0.879645 -0.384869
-0.100936 0.112835 -0.108845 0.0338506 0.994758 -0.0964867
0.0420566 0.181843 0.130632 0.618782 -0.278975 0.734358
0.0378342 -0.172607 0.0869594 0.43961 0.21703 0.871574
-0.00794998 0.322393 0.287107 0.816488 0.424301 0.391556
-0.165269 0.0196684 -0.130078 0.108128 -0.946852 -0.302952
-0.133238 -0.243545 -0.128992 0.139747 -0.990186 -0.00141863
-0.0504815 0.149752 0.0882261 -0.828328 0.0386886 0.558906
0.0140674 -0.0101305 0.0106525 0.200432 -0.658086 -0.725775
-0.0859459 -0.0703616 -0.0858621 0.614334 0.412841 0.672425
0.0377135 -0.249215 0.0147299 0.333807 0.0295342 -0.942178
0.00498901 -0.0596244 0.0993253 -0.0665519 -0.176142 0.982112
0.0489936 0.292473 0.132442 0.926252 0.0618014 0.371804
0.019617 0.0121885 -0.0386303 0.0867588 -0.950204 -0.299309
-0.083533 0.427835 0.0140493 -0.952322 0.0274181 -0.303861
-0.0112677 0.135637 -0.0750646 -0.280777 0.664406 -0.692624
-0.06 0.300918 0.283487 -0.79495 -0.340353 0.50221
0.0390406 -0.299885 0.0839433 -0.267039 0.188829 0.945005
0.101534 0.379577 -0.239139 0.221114 -0.110214 -0.969
0.0367483 -0.0464139 0.0755887 0.981562 0.0629501 0.180478
0.00589386 0.366307 -0.00364374 -0.10634 0.552841 -0.826473
0.100448 0.390918 -0.227075 0.853211 0.348785 -0.387789
0.0616612 0.347969 0.0665706 0.848718 0.482222 0.217119
0.0660647 -0.389161 0.0788159 0.425941 -0.0420394 0.903774
-0.0265592 0.30695 0.244519 0.418048 0.396869 -0.817148
0.0877805 0.273411 -0.198724 -0.42611 -0.409586 -0.806641
-0.217326 0.0138549 -0.148778 -0.562567 -0.565279 -0.603306
-0.0440034 0.119832 -0.0746423 -0.151961 0.952495 -0.263933
0.104309 0.276789 -0.00264844 0.98025 0.149474 -0.129489
-0.158271 -0.0586593 -0.0940056 -0.587624 -0.240348 0.772613
-0.119485 -0.0404119 -0.139126 0.516369 0.228192 -0.825404
0.0620231 0.30695 -0.168322 -0.68078 0.527528 0.508186
0.0246841 -0.133156 0.0801732 0.600527 0.0360066 0.798793
0.0692014 0.0175647 0.0543555 0.74155 -0.625076 0.243688
-0.154773 0.0067181 -0.0985297 -0.473073 -0.854656 -0.213927
0.074751 -0.372513 0.0300459 0.808456 -0.138438 -0.572044
-0.012655 -0.0332337 0.102341 0.142463 -0.0540473 0.988323
0.0703475 0.131776 0.0916644 0.669899 -0.110829 0.734133
-0.0701114 0.0915416 -0.120426 0.137095 0.454151 -0.880314
-0.0312794 -0.130623 0.0302646 -0.848865 -0.206243 -0.486716
0.0431425 0.270516 -0.127906 -0.82345 -0.0601506 -0.564191
-0.0416245 0.0207542 -0.0724104 0.218052 -0.938079 -0.269187
-0.066477 0.0267109 0.00578905 -0.957637 -0.225497 -0.179117
0.0324052 -0.468062 0.0429246 -0.159731 -0.412507 -0.896841
-0.0413757 0.454135 -0.0252087 -0.188592 -0.0158351 -0.981928
-0.139572 0.0370712 -0.151311 0.383831 -0.654649 -0.651236
0.0863327 0.20935 -0.0378763 0.801561 -0.256319 -0.540186
0.0672108 0.408532 -0.283054 0.0687861 -0.797658 -0.599174
0.0609976 0.147098 -0.0542536 0.616813 0.113114 -0.77894
0.10648 -0.483022 0.0612322 0.849467 -0.512317 -0.126243
0.0467618 0.364618 0.000216842 0.289373 0.929204 -0.229876
0.0707094 -0.373478 0.0242437 0.704506 -0.195958 -0.682108
0.00942266 0.478746 0.0244134 0.686603 0.715404 0.129516
0.0599119 0.292232 -0.167839 -0.978783 0.204388 -0.0144691
-0.0428725 0.439899 0.0607798 -0.31996 0.0332468 0.946847
0.0086686 -0.244148 0.0131068 -0.339416 -0.00137837 -0.940636
-0.0219144 0.0796582 -0.102451 0.295798 0.0377155 -0.954506
-0.00897545 0.256763 -0.0621557 -0.766529 0.0165851 -0.641996
-0.0359091 -0.0894836 0.0722409 -0.63072 -0.207198 0.747837
0.0842818 -0.464443 0.0830384 0.418054 -0.0265193 0.908035
-0.0807431 0.39502 0.0124772 -0.821301 -0.273918 -0.500433
-0.063182 0.482124 0.0301892 -0.550364 0.779174 0.299979
0.0341545 -0.0562162 0.0796303 0.860003 0.070064 0.505457
-0.0612894 0.0477783 0.0812288 -0.921722 -0.149314 0.357957
-0.121415 -0.0234013 -0.0963581 0.550777 0.615325 0.563933
-0.122621 -0.044363 -0.142625 0.517727 0.23127 -0.823695
0.0806625 0.152044 -0.0318441 0.695616 0.0658061 -0.715394
-0.11303 -0.0534414 -0.138161 0.512328 0.143915 -0.846646
0.0881424 0.421803 -0.25048 0.803737 0.446092 -0.393711
-0.0383973 0.354242 0.248501 0.291685 0.263474 -0.919511
-0.182702 -0.0305795 -0.147933 -0.666645 -0.35604 -0.654844
-0.0485418 0.282339 0.225096 -0.131139 0.865999 -0.482544
0.0517081 0.00058226 0.022649 0.667936 -0.738614 -0.0911592
0.0616612 -0.482539 0.0549587 -0.128202 -0.893288 -0.430814
0.0269762 -0.286132 0.0750458 -0.324896 -0.0731406 0.942917
0.0621438 0.0876208 0.0858132 0.623529 -0.222948 0.749337
0.0116847 0.354966 -0.00955526 -0.170837 0.798686 -0.576988
-0.1786 -0.0161174 -0.115118 -0.578421 -0.26401 0.771834
0.0115037 -0.445864 0.0611417 -0.778769 0.508557 -0.367271
0.0281224 0.129243 -0.0807348 0.4035 0.279769 -0.871159
0.0188932 0.398398 0.0112218 0.4012 0.535856 -0.742898
-0.0405614 -0.0532303 0.00782491 -0.470142 -0.272744 -0.839391
-0.0340089 0.491052 0.0024035 -0.0526979 0.949959 -0.307898
-0.00200828 0.263036 0.302549 0.156989 -0.515242 0.842544
0.0694427 -0.486883 0.0876229 0.144497 -0.597308 0.788887
0.0307162 -0.46951 0.102462 0.216377 -0.307382 0.926659
-0.0370929 0.30309 0.24283 0.00293085 0.33405 -0.942551
0.00450643 0.364859 0.0964902 -0.31634 0.887679 0.334598
0.011172 0.273653 -0.0774774 -0.739623 0.200312 -0.642521
0.012861 0.293438 0.283729 0.873351 0.369924 0.316881
-0.12425 -0.130261 -0.135386 -0.509565 -0.443774 -0.737162
0.0286653 -0.142084 0.0789366 0.445461 0.0575649 0.893449
0.0419963 0.268103 -0.126217 -0.838997 -0.169649 -0.517013
0.109376 0.234082 -0.000537178 0.995148 0.0584269 -0.0791585
0.0701062 0.358344 -0.221526 -0.677784 -0.311054 -0.666224
-0.141623 -0.0349227 -0.150225 0.350493 0.0729582 -0.933719
-0.0642301 0.000242931 0.0590003 -0.971758 0.00157764 0.235973
-0.0926416 0.0230917 -0.0538313 -0.328729 -0.644474 0.690356
-0.00535616 0.200422 -0.0632415 -0.371517 -0.115745 -0.921183
-0.1561 -0.0599863 -0.0923769 -0.583126 -0.239455 0.77629
-0.236267 0.03122 -0.126821 -0.940045 -0.185805 0.285992
-0.0670049 0.0252481 -0.101304 0.254389 -0.799184 -0.544602
0.0559306 -0.371789 0.0923883 0.17766 0.00571696 0.984075
-0.061968 0.18884 0.0569795 -0.99034 0.0100091 0.138299
-0.0713028 0.388264 0.044508 -0.79829 -0.247435 0.549098
-0.122923 0.0280833 -0.124166 0.380702 -0.716925 -0.584024
0.0813864 -0.312674 0.0553508 0.996128 0.0611878 0.0631335
0.0187122 0.311293 -0.0816999 -0.823029 0.20247 -0.530687
-0.0623073 0.198974 0.0234821 -0.987169 0.153604 -0.0436366
0.00806541 0.0327582 -0.07609 0.228615 -0.505675 -0.831882
0.0837992 0.186066 0.0790572 0.860675 0.00910344 0.509073
0.0521304 0.142755 0.104634 0.685378 -0.0157159 0.728018
0.0401867 0.0989008 -0.0856208 0.524686 -0.043602 -0.850178
-0.0789636 0.110181 0.0301439 -0.957037 0.192836 0.216552
0.0905552 0.0631301 0.017843 0.972421 -0.227295 -0.0522875
-0.00282264 0.320221 0.279385 0.834404 0.510056 0.208836
0.0337926 0.342902 -0.0821222 -0.585222 0.626885 -0.514325
0.019617 0.427111 -0.00278416 0.78594 -0.236453 -0.571304
-0.080351 0.463545 0.00404727 -0.861094 0.389609 -0.326683
0.0515875 -0.426078 0.0960679 -0.211226 0.251088 0.944637
-0.0805471 0.345797 0.27842 -0.901278 -0.389284 0.190147
0.086574 0.336146 -0.0873702 0.50772 0.796705 -0.327845
-0.0514202 0.385851 0.304479 0.603262 0.383855 0.699092
-0.0936067 0.0621047 -0.0544346 -0.500414 0.237998 0.832432
-0.135289 0.031597 -0.139488 0.260469 -0.744755 -0.614407
0.0149119 0.156749 -0.0757281 -0.265194 0.311659 -0.912437
0.0562926 -0.22762 0.0284926 0.727003 0.208262 -0.654289
-0.00855318 0.0521516 0.118749 -0.165203 -0.102466 0.980922
0.0611786 -0.338491 0.0192785 0.297056 -0.0708956 -0.952224
-0.0338129 0.317567 0.170203 -0.844776 0.451113 0.287839
0.0673917 0.444001 -0.26182 0.168909 0.974159 -0.149949
0.0741477 -0.400985 0.040195 0.565484 0.419941 -0.709844
-0.107903 0.388264 0.322576 -0.51726 0.0242596 0.855484
-0.0696741 0.390194 0.0464534 -0.55986 -0.249352 0.790177
-0.0198333 0.306709 0.305686 0.385036 -0.0405907 0.922009
-0.141261 0.0854491 -0.14552 0.3222 0.388902 -0.8631
0.0923649 -0.489537 0.0694359 0.438998 -0.892244 0.105742
-0.018084 -0.0663201 0.00211697 -0.282168 -0.191774 -0.940002
-0.0558793 0.118324 0.0851497 -0.854852 -0.0179353 0.518562
0.0674521 0.330596 -0.186539 -0.994768 -0.101693 -0.00974862
-0.0217486 0.0802012 0.113561 -0.399796 -0.0301104 0.916109
-0.149284 0.0497388 -0.0696959 -0.235213 -0.0989198 0.966897
0.104912 0.31057 -0.132129 0.278307 0.915345 -0.291012
-0.0011638 0.293679 -0.0592603 -0.711981 0.186036 -0.677106
0.116011 0.366065 -0.223456 0.888455 0.338761 -0.30966
-0.0495868 -0.120368 -0.0950913 0.772074 0.410757 -0.484955
-0.0251416 0.347969 0.0893119 -0.672221 0.650937 0.352704
-0.00623083 -0.236186 0.0643991 -0.822025 -0.358551 0.442398
0.0243221 -0.0364006 0.0798414 0.794088 0.19908 0.574275
-0.0189888 0.349175 0.101256 -0.597762 0.799662 0.0567645
0.0993622 0.298988 -0.045326 0.989936 -0.0064328 0.141368
0.0874185 0.0887065 0.0571906 0.876959 -0.131184 0.462313
-0.0192753 0.229256 0.245847 -0.225768 -0.915015 0.334329
-0.179082 0.0174817 -0.157223 0.505154 -0.246183 -0.827172
-0.000500233 0.0742293 -0.105346 -0.019463 -0.225485 -0.974052
0.0151532 -0.296507 0.0150088 -0.478281 -0.332795 -0.812709
0.0482698 0.373545 0.0410546 0.797551 0.603251 0.000873332
0.0290272 -0.450448 0.0418689 -0.574195 0.0609267 -0.816448
0.0272175 -0.211816 0.0987824 0.23836 0.158132 0.958216
0.0314401 -0.0439709 0.0370734 0.948442 -0.223664 -0.224571
0.0581022 0.353036 -0.0851383 0.114857 0.918394 -0.37863
0.0397041 0.33687 0.13389 0.810159 0.415316 0.413708
0.0950191 0.275824 -0.0435163 0.975805 -0.213912 -0.0452363
0.00571288 0.283787 0.237522 0.192468 0.9754 0.10748
-0.0046926 0.107044 -0.100339 0.0356635 0.398727 -0.916376
-0.123948 0.0414445 -0.145882 0.541818 -0.483893 -0.687227
-0.143553 -0.128934 -0.123563 -0.577266 -0.810332 -0.100628
0.01081 0.476333 0.0300534 0.75515 0.639955 0.142146
-0.077908 -0.104926 -0.125976 0.666732 0.0297728 -0.744703
0.0727001 0.234444 -0.146365 0.18329 -0.95504 -0.233033
0.0770432 0.276066 0.0856926 0.913919 0.146998 0.378344
-0.0686336 0.0445209 -0.0256611 -0.95061 -0.221993 0.216933
-0.221066 0.0479291 -0.10046 -0.787258 -0.0491577 0.614661
0.0947778 0.31057 -0.222611 -0.462608 -0.230796 -0.855995
0.0080956 0.173519 0.133769 -0.10184 -0.266931 0.95832
-0.0567992 -0.172245 -0.10981 0.629417 -0.0669531 -0.774178
0.0772845 0.243974 -0.0807951 0.615909 -0.771046 0.161692
-0.012836 0.219001 0.201329 -0.00764174 -0.990138 0.139886
-0.0621641 0.235409 0.0532396 -0.999733 0.0231057 0.000463289
-0.0559698 0.116816 0.0824352 -0.870001 0.00958333 0.492957
0.0340942 0.333974 -0.0929198 -0.524678 0.556848 -0.64392
-0.09985 -0.0668027 -0.130802 0.7109 0.235999 -0.662514
-0.0337224 0.201267 -0.0433354 -0.636815 0.158078 -0.754638
0.00610497 -0.041166 0.00358731 0.51157 -0.105897 -0.852691
-0.212259 0.0886462 -0.135145 -0.582852 0.812184 0.0253223
-0.0530065 0.237218 0.0123453 -0.970061 0.140736 -0.197928
-0.0630462 -0.176467 -0.0610699 -0.113411 -0.456788 0.882317
0.0421773 -0.415703 0.0879848 -0.30293 0.408912 0.860828
0.0410312 -0.211454 0.0176338 0.495231 -0.00648138 -0.868737
0.0615405 -0.430663 0.0275802 -0.0238003 -0.0604933 -0.997885
0.0458569 0.069283 0.090277 0.555807 -0.153685 0.816982
-0.0627899 0.0357441 -0.0048351 -0.959605 -0.272721 -0.0691419
0.0351197 -0.0548288 0.0796906 0.886762 0.0162256 0.461941
0.0079448 0.00577181 -0.000235571 -0.0457411 -0.797378 -0.601745
0.0958635 0.170623 0.0366813 0.986656 0.0298603 0.160056
0.0222712 -0.157164 0.0820733 0.0652325 0.231215 0.970713
-0.0470591 0.349658 0.305203 0.170218 -0.0219228 0.985162
0.081507 0.261106 0.0780619 0.96249 0.0971669 0.25332
0.0196773 0.466682 0.0255595 0.886454 0.446127 0.123171
-0.136616 0.0237703 -0.135024 0.28828 -0.675987 -0.678186
0.0318623 -0.409912 0.0438294 -0.85932 0.271289 -0.433556
-0.147956 0.0303906 -0.141298 0.456558 -0.750175 -0.478322
0.0664266 0.369685 -0.180024 -0.883116 0.0697478 0.463941
-0.151093 0.0841221 -0.0795284 -0.352025 0.536671 0.766852
0.0373516 -0.0739206 0.0560445 0.979948 0.0767704 0.18387
-0.128533 0.103003 -0.131164 0.0486153 0.799263 -0.599012
-0.107843 -0.0370943 -0.0981074 0.756638 0.523995 0.39106
0.0977939 0.126589 0.0326774 0.993423 -0.0334397 0.109509
0.0670298 -0.209524 0.0624989 0.880655 0.40574 0.244584
-0.0509913 0.257969 0.0138722 -0.978461 0.0974047 -0.182006
0.043806 0.00162187 0.0608099 0.609585 -0.733596 0.300403
0.01642 0.353518 -0.0370619 -0.45223 0.877205 -0.161244
-0.0447085 -0.0932839 0.066631 -0.769812 -0.225185 0.597228
0.0856089 0.355449 -0.167839 0.00742087 0.478504 0.878054
-0.207434 -0.00407195 -0.152518 -0.418869 -0.692988 -0.586785
0.0745097 0.200784 0.0906993 0.810157 0.0164443 0.585983
0.0600929 -0.296266 0.0864165 0.367279 0.0430319 0.929115
-0.117253 -0.144859 -0.0931611 -0.942851 -0.0366611 0.331192
0.0898314 0.217553 0.0442516 0.96867 0.094718 0.229579
0.0477872 -0.217969 0.0864165 0.487601 0.187988 0.852588
-0.0560414 0.259417 0.0953441 -0.93734 -0.124626 0.325366
-0.0556154 0.202111 -0.00688603 -0.923034 0.25506 -0.288015
-0.0354566 0.12321 -0.0838112 -0.14448 0.891085 -0.430225
-0.068905 0.068921 -0.012511 -0.983707 0.0813159 0.160337
0.0120165 0.399122 0.06832 0.329217 0.501995 0.799761
0.0255889 0.0657843 -0.0917133 0.399315 -0.307982 -0.863536
-0.190664 -0.0530795 -0.120426 -0.945887 -0.324295 -0.0114092
0.111065 0.313947 -0.111258 0.849831 0.5266 0.0219059
-0.091797 0.406843 0.0246433 -0.997523 0.0355287 0.0607084
-0.0364972 0.22069 0.111752 -0.880702 -0.216543 0.421276
-0.0375151 0.485502 -0.00718764 -0.182838 0.798457 -0.573617
-0.149284 0.108492 -0.118617 -0.110699 0.993561 -0.0241313
0.0562926 -0.249215 0.0881658 0.287668 0.20988 0.934451
-0.136254 -0.00382311 -0.134542 0.770006 0.509886 -0.383544
-0.00665304 0.313465 0.25779 0.634659 0.511375 -0.579399
-0.0764301 0.0960657 -0.117772 0.0282073 0.538409 -0.842212
-0.0719663 -0.117593 -0.0703595 0.166148 0.45083 0.87701
-0.0667032 0.079236 0.0659071 -0.879174 0.0383943 0.474951
0.0229347 0.0558916 0.108313 0.586509 -0.0707395 0.806848
-0.0131376 0.127916 -0.0839318 -0.167932 0.697074 -0.697055
-0.0866396 0.0869572 0.024338 -0.955832 -0.272296 0.110633
0.0159374 -0.155958 0.0844862 -0.0151072 0.205768 0.978484
0.0164803 -0.137258 0.0108448 0.233875 -0.0341487 -0.971667
-0.09985 -0.0509381 -0.106311 0.81936 0.549102 0.164732
0.0502001 -0.29506 0.0137704 0.339954 0.0653681 -0.938168
-0.0191245 0.359792 -0.00780594 -0.572051 0.0929935 -0.81493
0.03518 -0.215194 0.0903374 0.468577 0.112311 0.876254
0.0692014 0.351829 0.0157629 0.652914 0.753582 0.0762741
-0.0684375 -0.193961 -0.081157 0.330598 -0.764167 0.553853
0.0698046 0.3651 -0.173509 -0.679017 -0.062158 0.731486
-0.216844 0.0840618 -0.125976 -0.667335 0.738719 0.0946468
-0.121053 -0.0955158 -0.140333 0.124898 -0.443253 -0.887653
0.0431425 -0.331977 0.01135 -0.132825 -0.25244 -0.958453
0.0822309 0.34821 -0.165306 -0.238999 0.250744 0.938087
-0.0366782 0.00898014 0.0944996 -0.594865 -0.11957 0.794883
-0.152601 -0.0907504 -0.100701 -0.677162 -0.392749 0.622253
0.0410312 -0.215918 0.0884674 0.507903 0.124983 0.852299
-0.0815424 0.38754 0.0160023 -0.845042 -0.460295 -0.272089
-0.0603393 0.396709 0.290485 0.627222 0.71407 0.31096
-0.0171189 -0.203974 0.0328584 -0.780784 -0.115249 -0.614079
0.0927268 0.132862 0.0552302 0.929508 -0.0598002 0.363922
0.066306 0.43073 -0.23359 -0.217195 0.833985 0.507243
-0.0204366 -0.166213 0.070944 -0.539573 -0.00333984 0.841932
-0.125637 0.0782106 -0.0686101 -0.295698 0.377382 0.877579
0.028605 -0.433558 0.0797509 -0.721585 0.340166 0.602995
-0.0100311 -0.483505 0.0859942 0.134501 -0.929486 0.343461
-0.163158 -0.0665614 -0.140333 -0.49834 -0.445061 -0.744028
0.0656424 0.31443 -0.125373 -0.20831 0.700594 -0.682477
-0.138426 -0.0823657 -0.0837509 -0.549676 -0.123425 0.82621
0.071011 0.273894 -0.195587 -0.740942 -0.276632 -0.611947
0.0390406 -0.230878 0.0876229 0.371283 -0.144391 0.917224
-0.00788968 0.493465 0.0157779 0.285572 0.948563 -0.136661
-0.0517699 0.209229 0.0806256 -0.886589 -0.0812914 0.455358
0.0161787 -0.19939 0.0937154 -0.411979 0.18662 0.891878
-0.0613346 0.214658 0.0381742 -0.99572 0.0720256 -0.0579143
0.101534 0.378371 -0.229729 0.660663 -0.0572258 -0.748498
-0.115142 -0.155958 -0.0829064 -0.836329 -0.140662 0.529875
0.0251666 0.241441 0.193729 0.931173 -0.336787 0.139611
0.0498985 0.183773 -0.0684895 0.502435 -0.29377 -0.813178
-0.00963902 0.308639 0.215203 -0.214525 0.556497 0.802677
-0.167561 0.0114345 -0.113188 0.088963 -0.971897 0.217947
-0.0125344 -0.482781 0.0630117 -0.210244 -0.922554 -0.323559
-0.0336018 0.348693 -0.00218094 -0.672697 0.147933 -0.724979
0.0285446 0.332285 -0.0889385 -0.675216 0.467571 -0.570492
-0.146388 0.00962484 -0.114997 -0.129869 -0.951921 -0.277455
0.0963461 0.252661 -0.102028 0.623292 -0.747481 0.229739
0.0615405 0.314913 0.101618 0.870632 0.150963 0.468199
0.0166612 0.288612 0.220511 0.746788 0.52066 0.413789
-0.0410967 0.284269 0.296758 -0.694618 -0.369123 0.617458
-0.0519282 0.255074 0.0212389 -0.975171 0.0921703 -0.201363
-0.0592083 0.259417 0.228595 -0.927641 -0.175777 -0.329521
0.0255285 0.298264 -0.0937643 -0.830536 0.143423 -0.538183
0.0959842 0.281132 -0.0346491 0.986344 -0.159337 -0.0416808
0.0252269 -0.0590212 0.0164339 0.79339 0.220288 -0.567455
-0.0556267 0.379577 0.310511 0.489191 0.167512 0.855939
0.0386183 -0.0733174 0.0378274 0.947101 0.243187 -0.209427
0.0805418 -0.325462 0.0365305 0.898744 0.0460996 -0.436045
-0.0641471 0.0442796 -0.124166 0.250397 -0.473406 -0.844505
0.0541813 0.36317 0.0618656 0.778107 0.593243 0.206428
0.0632296 -0.323049 0.0185209 0.484561 -0.117028 -0.866894
-0.179565 -0.0405326 -0.145158 -0.701602 -0.44587 -0.555837
-0.0134694 0.0869572 0.118508 -0.263197 -0.0495934 0.963467
0.0321036 -0.0550098 0.0711249 0.985601 0.0428241 0.163577
0.0115641 -0.35321 0.0560144 -0.802937 0.212145 0.557034
-0.0671104 0.330838 0.250914 -0.7584 0.151659 -0.633899
-0.0491836 -0.17514 -0.0540123 0.0291306 -0.549949 0.83469
-0.0159727 0.121944 0.119895 -0.354206 -0.128775 0.926259
-0.0263028 0.340972 0.154882 -0.795166 0.543429 0.269066
0.0295097 0.28258 -0.103959 -0.806875 0.127191 -0.576866
0.11589 0.365342 -0.221646 0.888455 0.338761 -0.30966
0.0633502 -0.347901 0.08521 0.26851 0.0597218 0.961424
-0.0264687 -0.192754 0.0629815 -0.939108 -0.13221 0.31717
-0.00680384 -0.256695 0.0454279 -0.905849 -0.416812 0.0755349
-0.0428423 -0.18262 -0.0953326 0.68426 -0.495312 -0.535214
-0.103831 -0.0807973 -0.137196 0.600016 -0.0223114 -0.799677
-0.00499419 0.132621 -0.0823635 -0.148877 0.632308 -0.760277
-0.0615533 0.190771 0.0584574 -0.99034 0.0100091 0.138299
0.0644963 0.383438 -0.21103 -0.979035 -0.20168 0.0285494
0.0149723 0.378612 0.0770364 0.252899 0.609626 0.751265
-0.127628 -0.0570306 -0.0809761 0.163333 0.355419 0.920326
0.0525526 0.184859 -0.0661973 0.607357 -0.307426 -0.732534
0.0770432 0.028777 0.0479313 0.884132 -0.354864 0.303944
0.071373 -0.38144 0.0317877 0.731261 -0.377898 -0.567847
0.0155152 0.21502 -0.0792871 -0.16752 -0.273353 -0.947214
0.0180487 0.00102429 -0.00317625 0.00357126 -0.809571 -0.587011
-0.0627145 0.191253 0.0151728 -0.980467 0.190716 -0.0480897
0.0241411 0.390435 0.00344405 0.469485 0.419991 -0.776654
-0.0130471 0.251213 0.296275 -0.109683 -0.557134 0.823147
-0.117313 -0.115784 -0.0815793 -0.678211 -0.198592 0.707524
-0.0351928 0.278961 0.196986 -0.916479 0.400056 0.00464716
0.0430821 -0.397607 0.0185521 -0.143824 -0.609791 -0.779403
-0.12419 -0.0292524 -0.0937643 0.466403 0.36966 0.803629
-0.128352 0.0829156 -0.0715056 -0.279976 0.449439 0.848303
0.0772845 -0.390851 0.0439349 0.520465 0.191148 -0.832213
-0.0653309 0.471749 0.0419443 -0.605749 0.513156 0.608062
0.134952 0.2751 -0.153121 0.974659 -0.0379133 0.220462
0.0679346 0.362929 -0.219233 -0.797223 -0.246176 -0.55121
-0.0353587 0.0371918 0.101437 -0.58403 -0.152765 0.797227
0.050924 0.340972 0.108072 0.830872 0.358923 0.425235
-0.173292 0.103908 -0.124166 -0.235994 0.97175 0.00287311
-0.0701416 0.049226 -0.129113 0.242099 -0.408974 -0.879845
0.119148 0.257245 -0.199448 0.508339 -0.743607 -0.434326
-0.0204667 0.0640651 -0.101304 0.220244 -0.166859 -0.961067
0.0284843 0.0456369 0.100109 0.624334 -0.111344 0.773181
0.0469427 0.441588 -0.263992 -0.577806 0.81616 -0.00486246
0.0778877 0.332768 -0.102632 0.297189 0.785442 -0.542917
0.0660647 -0.407499 0.0334088 0.321398 0.101716 -0.941465
-0.0247797 0.347245 0.140887 -0.57623 0.800208 0.16621
0.115649 0.258693 -0.131888 0.739209 -0.60701 0.291733
0.03518 0.30695 -0.110534 -0.742435 0.281444 -0.607931
0.00360164 0.163867 0.131356 -0.098641 -0.332688 0.937864
0.0667282 0.354725 -0.17737 -0.785608 -0.106353 0.609516
0.00393335 -0.058991 0.0998079 -0.0950515 -0.176264 0.979743
-0.046865 0.207299 0.08895 -0.876979 0.00856769 0.480452
-0.0758721 -0.0966619 -0.0733152 0.208615 0.46664 0.859492
0.0869359 0.425904 -0.245654 0.7594 0.640185 -0.11608
-0.111402 0.402982 0.299895 -0.737952 0.61138 0.285731
-0.062805 0.0751945 0.0283795 -0.922158 -0.359717 -0.142225
0.0898314 -0.458652 0.0788763 0.63588 -0.0247835 0.77139
0.0403677 0.10059 -0.0851986 0.481096 0.0882106 -0.872219
0.0553274 0.407325 -0.215011 -0.919379 -0.282342 0.273906
0.0349991 -0.310743 0.00932541 -0.303917 -0.263296 -0.915593
0.0017015 0.310087 0.286141 0.809126 0.469403 0.35352
-0.0644035 0.297057 0.262013 -0.971584 -0.204196 0.119697
0.0365071 0.137567 0.125746 0.596043 -0.217944 0.772809
0.00245549 -0.110717 0.0879848 -0.161949 -0.267348 0.949893
-0.0129566 0.086173 -0.100581 -0.151746 -0.0542501 -0.98693
-0.0739418 0.0730229 -0.0407114 -0.81351 0.145479 0.56306
0.0599722 0.143479 -0.0557013 0.630546 0.140615 -0.763308
0.0881424 0.33325 0.00325555 0.851416 0.499153 0.161049
0.01455 0.197527 -0.0655941 -0.246403 -0.231268 -0.94117
-0.0781795 0.0950403 0.0451565 -0.905246 0.216748 0.365444
-0.0945719 -0.0759113 -0.0810364 0.431611 0.377072 0.819469
-0.0729767 0.115912 0.0408585 -0.937374 0.182375 0.296766
0.0661853 -0.341145 0.0858736 0.493777 0.179878 0.850781
-0.0244932 -0.204939 0.0550492 -0.965123 -0.236036 0.113247
0.0857295 0.244095 0.0520331 0.957239 0.020992 0.288536
-0.0578134 0.0444907 0.0851497 -0.863622 -0.140889 0.484053
-0.20297 0.0187033 -0.095031 -0.422037 -0.656457 0.625259
-0.10742 -0.0404421 -0.0955739 0.753462 0.5338 0.383864
-0.0299071 -0.149081 -0.0823635 0.907917 0.344419 -0.238875
0.00272697 0.000444652 0.00231302 0.016686 -0.728683 -0.684648
-0.0787224 -0.172727 -0.0631209 -0.214294 -0.400155 0.891041
0.00607478 0.269551 -0.0744613 -0.759314 0.178116 -0.625873
-0.0352531 0.292714 -0.0157986 -0.871669 0.291944 -0.393651
0.0547242 0.362929 0.00717645 0.534656 0.844534 -0.0300887
0.0225728 0.026907 0.103307 0.565837 -0.251224 0.785312
0.0983971 0.161575 0.0145659 0.984181 -0.116336 0.133619
0.10455 0.319738 -0.106914 0.659317 0.748299 -0.0731361
-0.0448291 -0.480609 0.06645 -0.56306 0.645765 -0.515705
0.035361 -0.423665 0.0772777 -0.791321 -0.0568888 0.608749
-0.0736252 0.135395 0.018655 -0.979701 0.195075 -0.0461658
-0.0651349 0.131052 -0.0221625 -0.88021 0.250577 -0.403039
0.0374722 0.00414216 0.0758602 0.691664 -0.557843 0.458708
-0.0503301 -0.094068 0.0547174 -0.940009 -0.254978 0.226647
0.0821103 0.208747 0.0825559 0.875908 0.0288662 0.481613
-0.0356527 -0.16561 -0.095031 0.789446 -0.253582 -0.558992
0.045133 -0.139671 0.0624386 0.722456 0.376754 0.579754
-0.175946 -0.0206566 -0.160118 -0.135944 -0.3155 -0.939137
0.00640656 0.0387904 -0.0794077 0.231413 -0.50736 -0.83008
0.0992415 0.307433 -0.156981 -0.0317693 0.932739 0.359149
-0.0806677 -0.0969032 -0.0712643 0.164897 0.446367 0.879526
-0.0525993 0.339524 0.0577938 -0.999955 -0.00740725 -0.00592509
-0.0217184 -0.158853 0.0699487 -0.546183 0.00539324 0.837649
-0.0117503 0.487191 -0.00482001 0.194356 0.834792 -0.515119
0.0945365 0.384403 -0.242276 0.105449 -0.132789 -0.985519
-0.117916 -0.190462 -0.0883353 -0.773851 0.267581 0.574069
0.0961048 -0.449001 0.0704312 0.929249 -0.0719115 0.362389
0.0735445 0.337352 0.0417935 0.869576 0.414792 0.267926
-0.00900564 0.340248 -0.0208957 -0.508312 0.541758 -0.669416
0.00857818 -0.362137 0.0513093 -0.909023 0.167335 0.381675
-0.0489329 0.122607 -0.0891798 0.0424207 0.970711 -0.236474
-0.029711 0.367996 0.00794555 -0.455696 -0.380203 -0.804852
-0.109441 0.106622 -0.12103 0.131933 0.924835 -0.356754
-0.144458 0.0230313 -0.134662 0.0181415 -0.537422 -0.843118
-0.0403427 0.0229559 -0.0955136 0.295644 -0.800546 -0.521269
-0.00342584 -0.149443 0.0816511 -0.352715 0.0471956 0.93454
-0.0278712 -0.1714 -0.0900846 0.826948 -0.389238 -0.405771
-0.0731878 0.377647 0.254654 -0.41249 -0.0827092 -0.9072
-0.0452665 0.337111 0.306168 0.127119 0.101571 0.986673
0.048692 0.281615 -0.134662 -0.83851 0.222692 -0.497303
0.0480888 0.375717 0.0346907 0.774905 0.622418 -0.11008
0.0416344 0.307433 0.149211 0.922513 0.144196 0.358019
-0.0531196 0.0137494 -0.0106561 -0.583574 -0.624373 -0.519229
-0.0241011 -0.165971 0.069255 -0.530272 -0.00236947 0.847825
-0.166415 -0.0393865 -0.0941865 -0.718866 -0.0445904 0.693717
-0.0514758 0.234444 0.000910542 -0.964562 0.141047 -0.222991
0.0945365 0.134913 0.00118199 0.98817 -0.106905 -0.109962
0.0409709 0.384644 0.0257178 0.758906 0.613071 -0.219559
0.0885043 0.337835 -0.222008 -0.601684 -0.263441 -0.754039
-0.0477886 0.281132 0.2222 -0.180583 0.907857 -0.378398
0.00930198 0.114826 0.124298 -0.0959758 -0.18551 0.977944
-0.0374171 -0.157647 -0.0940659 0.714505 0.0741364 -0.695691
0.0430821 0.298505 0.148246 0.936716 0.0796798 0.340903
-0.179324 -0.0107262 -0.108241 -0.560833 -0.14858 0.814488
0.0823515 0.0948593 0.0655452 0.82172 -0.149934 0.549814
-0.141321 -0.129658 -0.120668 -0.26627 -0.960744 0.0779159
-0.13541 0.0133195 -0.086767 -0.0737297 -0.932344 0.353976
-0.0240257 -0.20699 0.0522141 -0.946904 -0.314206 -0.0681668
-0.0606636 0.214779 0.065696 -0.977261 -0.00374302 0.212008
-0.00580856 -0.302298 0.0399236 -0.929398 -0.0979758 -0.355836
0.0844024 0.252178 -0.0601651 0.922011 -0.362428 -0.136165
-0.0146155 0.312982 0.20893 -0.458916 0.572082 0.679793
0.0912791 -0.425596 0.0780921 0.772859 0.426622 0.469768
0.0837992 0.348452 -0.163858 -0.0981738 0.315217 0.943928
-0.0134392 0.017723 0.111631 -0.24857 -0.283477 0.926204
0.0800593 0.315154 -0.123322 -0.0189227 0.79904 -0.600981
0.0676933 -0.228706 0.0449604 0.950818 0.144644 -0.273903
0.0570768 0.163264 -0.052444 0.639238 -0.0775594 -0.765088
