ply
format ascii 1.0
element vertex 817
property float x
property float y
property float z
property float nx
property float ny
property float nz
element face 0
property list uchar int vertex_indices
end_header
0.0402988 0.33398 -0.0923793 -0.274403 0.685762 -0.674117
0.0268522 -0.0358329 0.0388009 0.88659 -0.265173 -0.379001
0.00541594 -0.483673 0.0683474 -0.0442002 -0.989789 -0.135513
0.0882967 0.325779 -0.013433 0.900644 0.434547 0.0031044
-0.0584443 -0.142381 -0.0969017 0.859534 0.443122 -0.254645
-0.0212965 -0.215704 0.057584 -0.901317 -0.310207 0.302324
0.0991505 0.347969 -0.188556 0.527373 0.517976 0.673483
0.0253447 0.369195 0.00185278 0.335543 0.494226 -0.801967
-0.0278087 0.238105 0.207849 -0.67675 -0.439452 -0.590671
-0.0703345 0.0919404 0.0628903 -0.862498 0.118731 0.491934
0.0974622 0.224477 -0.0223723 0.913138 -0.0155762 -0.407353
0.044761 -0.00863054 0.0341127 0.9596 -0.275959 0.0548975
0.10518 0.308172 -0.170466 0.17361 0.617351 0.767292
-0.126729 -0.0287628 -0.128498 0.839503 0.46688 -0.277952
0.0311937 0.242085 -0.110167 -0.69973 -0.271903 -0.660641
-0.0469423 -0.0759316 0.0702468 -0.735454 -0.247707 0.630674
-0.0662568 0.00383246 0.0189701 -0.975299 -0.164803 -0.147079
0.0232946 -0.178319 0.0077583 0.347739 0.00779118 -0.937559
-0.0353008 0.457231 0.0623778 -0.274419 0.193807 0.941877
0.025405 0.231472 -0.0956957 -0.491613 -0.744377 -0.451906
0.0934825 0.321197 -0.0944294 0.617605 0.761483 -0.196746
-0.215368 0.0766848 -0.143694 -0.459868 0.880437 -0.11555
0.0226313 -0.342091 0.0306003 -0.749164 0.0347776 -0.661471
-0.0988408 -0.235241 -0.144297 0.546677 -0.71967 -0.42804
-0.00435248 0.291288 0.287202 0.748954 0.423699 0.509457
-0.00787997 0.261139 0.298538 0.414301 -0.135102 0.900057
0.110607 0.344834 -0.239569 0.819827 0.244079 -0.517986
0.0393341 -0.0336621 0.0559559 0.956285 -0.272566 -0.105954
0.00222011 -0.155285 0.00571945 -0.271303 -0.11816 -0.955214
-0.169541 -0.0472595 -0.0903291 -0.621514 -0.122973 0.773691
-0.20765 -0.0486464 -0.136096 -0.809508 -0.510717 -0.289595
-0.152055 0.0983924 -0.110288 -0.332781 0.870273 0.363154
0.0893821 0.0739713 0.011086 0.983899 -0.165357 -0.0678199
-0.0306729 -0.473542 0.109863 -0.17257 0.912117 0.371837
-0.128779 -0.13623 -0.13682 -0.906613 0.419818 -0.0424989
-0.193902 0.00869784 -0.163472 -0.0830327 -0.138762 -0.986839
0.059896 0.356894 -0.234263 -0.853848 -0.156854 -0.496328
0.0421681 -0.367899 0.024186 -0.220081 0.171583 -0.960273
-0.0577773 -0.142622 -0.0919572 0.825426 0.534744 -0.180889
-0.0519358 0.332292 0.0488105 -0.652559 -0.713005 0.256496
0.0464493 0.385596 -0.254523 -0.72558 -0.436153 0.532263
-0.168878 -0.0617011 -0.0947309 -0.490084 -0.148693 0.858899
-0.193902 0.00973797 -0.161904 -0.0830327 -0.138762 -0.986839
-0.0485139 0.0386664 -0.10673 0.497328 -0.560395 -0.662286
-0.0377128 -0.00510306 -0.0110361 -0.0412727 -0.639623 -0.76758
0.0753928 0.114914 -0.0521599 0.771285 0.270234 -0.576275
-0.0049856 -0.207383 0.0771209 -0.588568 -0.144738 0.795386
-0.0395067 0.0913374 -0.106851 0.406375 0.312035 -0.858774
-0.226222 0.062002 -0.15913 -0.491538 0.452424 -0.744112
-0.126307 -0.162641 -0.135734 -0.554525 -0.649008 -0.520856
0.0866084 0.202167 -0.035638 0.775189 -0.224087 -0.59065
-0.112046 -0.158782 -0.0838168 -0.584859 0.0475862 0.809738
0.0901057 0.117507 0.0490819 0.964545 -0.0329875 0.26185
0.0427711 0.398862 -0.260312 -0.840457 0.0992103 0.532719
0.107231 0.24727 -0.1168 0.682217 -0.671389 0.289511
-0.0491941 0.00441849 0.0859848 -0.709718 -0.145273 0.689344
0.0242594 -0.286616 0.00876831 -0.0501224 -0.142461 -0.988531
-0.0660005 -0.0257328 0.0406099 -0.992771 -0.118622 0.0182797
-0.0454236 -0.116573 0.0622572 -0.867404 -0.290369 0.404099
-0.139392 -0.147084 -0.14297 -0.560946 -0.802169 -0.204608
-0.108067 -0.132251 -0.140317 -0.160798 0.126859 -0.978801
0.0638154 0.284294 -0.160819 -0.264239 0.866861 0.422765
0.0421681 -0.367899 0.024186 -0.220081 0.171583 -0.960273
-0.00661367 0.15646 -0.0652448 -0.379448 0.344863 -0.858539
-0.10481 -0.166259 -0.133563 0.400255 -0.327956 -0.855711
0.00285322 -0.32183 0.0381075 -0.850196 -0.37914 -0.365266
-0.0719626 0.282847 0.279243 -0.864564 -0.350259 0.360344
-0.123473 -0.120613 -0.138749 -0.0572065 -0.299372 -0.95242
0.0851612 0.233763 -0.0473963 0.865331 -0.222233 -0.449237
-0.0307333 0.287429 0.306015 0.398555 0.101693 0.911489
-0.0452917 0.142591 -0.0460999 -0.600958 0.609467 -0.517107
0.0370427 -0.397566 0.0858642 -0.354426 -0.0509903 0.933693
0.0643581 0.304072 -0.191692 -0.984354 0.0879562 0.152676
-0.0694903 0.27537 0.268148 -0.908512 -0.318418 0.270585
0.0127423 0.125045 -0.087676 0.244532 0.496674 -0.832778
0.0319173 -0.411796 0.0882158 -0.507975 0.0346662 0.860674
-0.0433281 0.251732 -0.0203523 -0.883103 0.142274 -0.447088
-0.129442 -0.146723 -0.148638 -0.199641 0.314522 -0.928019
0.0375251 -0.454247 0.093703 0.098506 0.287623 0.952664
-0.0660457 0.0416512 0.0539359 -0.970026 -0.215038 0.113174
-0.0744198 -0.11796 -0.096359 0.574009 0.706604 0.413793
-0.0636187 0.198911 0.00353361 -0.951633 0.235888 -0.196854
0.0395752 0.0841016 -0.0857464 0.491561 -0.0199665 -0.870614
-0.0544486 0.186368 -0.0290655 -0.838467 0.12388 -0.530686
0.0304701 -0.0682737 0.0743773 0.964256 0.0288898 0.263392
0.0731014 -0.488255 0.0729301 -0.105892 -0.962191 0.250948
0.100718 0.17455 -0.00649861 0.980566 0.0236612 -0.194759
-0.00941761 0.293942 0.255967 0.566623 0.726259 -0.389213
0.0876937 -0.40842 0.0482075 0.791861 0.0475979 -0.608844
0.0583282 0.0563339 0.0795931 0.589796 -0.148732 0.793738
-0.0813089 0.0866341 0.047484 -0.979746 -0.0364039 0.196908
-0.188716 0.0841618 -0.113424 -0.420059 0.820151 0.388462
0.0670715 -0.292646 0.0282938 0.691267 0.116522 -0.713143
0.0676745 0.335668 -0.228956 -0.661932 -0.422095 -0.619421
0.0573635 0.287188 -0.198566 -0.912986 -0.0373411 -0.406279
0.0940854 0.163214 -0.0195684 0.944306 -0.0620776 -0.32316
-0.0692793 0.132461 -0.0262013 -0.858418 0.313944 -0.405657
-0.0612143 0.159716 0.0735029 -0.907436 0.0472703 0.417524
-0.0384364 -0.482225 0.0699754 -0.615005 0.746857 -0.252929
0.0336659 0.301178 0.158766 0.89667 0.216854 0.38595
0.046992 -0.167345 0.0744376 0.726241 0.266 0.633892
-0.046264 0.312031 0.149721 -0.958529 0.242049 0.150444
-0.0500703 0.320714 0.310598 0.253453 0.0931624 0.962851
0.0715336 0.264757 0.0876732 0.870714 0.0260946 0.491096
0.0144306 0.239914 0.259826 0.931147 -0.334229 0.145794
-0.0629178 0.0726448 0.0797137 -0.797769 0.0944398 0.595521
0.0298671 0.281882 0.178302 0.91734 0.185964 0.352001
0.075634 0.293942 0.0561067 0.950164 0.129246 0.283695
-0.194023 -0.0636909 -0.132599 -0.787488 -0.236999 -0.568941
-0.0609656 0.165143 -0.0212266 -0.864796 0.111651 -0.489552
-0.176114 -0.0591384 -0.0994342 -0.721452 -0.0383607 0.691401
0.0400576 -0.340161 0.0746787 -0.534424 -0.0645376 0.842749
-0.0354969 0.484245 -0.0112019 -0.0756642 0.768521 -0.635335
0.0800961 -0.34788 0.0741662 0.764142 -0.0694592 0.641297
-0.070425 0.286223 0.284308 -0.84845 -0.352524 0.39479
0.0561575 0.353276 0.0546897 0.855744 0.483982 0.182932
-0.0630383 0.182389 -0.0173976 -0.899637 0.155396 -0.40805
-0.0492073 0.0138308 0.0845979 -0.810236 -0.0910427 0.578989
0.00333561 0.47725 -0.00393591 0.616935 0.663267 -0.423637
0.0298671 -0.482225 0.0703674 0.061899 -0.994626 -0.0829939
-0.0283364 0.2855 0.305292 0.442118 0.129624 0.887541
0.0547706 -0.388159 0.016692 0.272292 -0.368031 -0.88905
-0.0911829 -0.169395 -0.0688024 -0.327808 0.022986 0.944465
-0.134809 0.0338123 -0.14707 0.304408 -0.558565 -0.771583
-0.00368918 0.137285 -0.0806813 -0.212901 0.512469 -0.831895
-0.010714 0.221583 -0.0607224 -0.653337 0.0764365 -0.753199
-0.0679527 0.0757803 0.00195077 -0.995095 0.0561065 -0.0814697
0.0671921 0.176118 -0.0460697 0.735705 -0.135701 -0.663568
-0.015146 -0.0867251 0.0876129 -0.391007 -0.177106 0.903187
-0.0620962 0.0109892 0.0703071 -0.887373 0.0193205 0.460647
0.0430123 0.390179 -0.255729 -0.833857 -0.327619 0.444239
-0.117684 -0.178199 -0.125845 -0.535408 0.0271307 -0.844158
0.0320379 0.388249 -0.295767 -0.703386 -0.45238 -0.54827
-0.00950804 0.130049 -0.0838771 -0.129035 0.590024 -0.797008
0.0314952 -0.207624 0.0905072 0.254523 0.0661773 0.9648
-0.087776 0.0670973 -0.0524011 -0.617132 0.196215 0.762003
-0.143914 -0.21679 -0.136217 -0.679775 0.577061 -0.452667
-0.0253817 -0.0914888 0.0811006 -0.547976 -0.209207 0.80991
-0.0424915 0.0506056 -0.107635 0.536391 -0.310587 -0.784743
-0.0171358 0.0935082 -0.104499 0.0614394 0.170442 -0.98345
-0.0737565 0.102915 -0.0568632 -0.628998 0.691115 0.355979
-0.102941 0.371124 0.333753 0.102658 -0.386295 0.916644
-0.130347 0.0710167 -0.137784 0.31291 0.246623 -0.917204
0.00559686 0.362682 0.106908 -0.216795 0.961039 0.171474
-0.0196382 0.188419 0.13742 -0.473035 -0.336002 0.814457
0.0305907 -0.0591987 0.0828492 0.823831 0.164095 0.542564
-0.196193 0.0685444 -0.0983489 -0.461567 0.611675 0.642503
-0.0328738 0.285017 0.207366 -0.782378 0.449011 0.431594
0.029445 -0.0629674 0.0838743 0.761527 0.0963802 0.640927
-0.0387228 0.11817 -0.0903291 -0.0843515 0.860599 -0.50225
0.035294 -0.0702032 0.0354845 0.96432 0.166374 -0.205929
0.0146718 0.200599 -0.0681994 -0.263185 -0.124132 -0.956726
-0.159471 0.0469876 -0.152256 0.428407 0.115869 -0.896126
0.0664083 0.258245 0.0937633 0.835049 0.0117005 0.550052
0.0326409 0.37836 -0.286361 -0.674716 -0.722277 -0.151901
0.112296 0.281641 -0.0942485 0.973648 -0.0428826 0.22399
-0.0655408 0.0745743 0.0741963 -0.827381 0.106964 0.551362
-0.0147842 -0.0387875 -0.000287828 0.0892645 -0.0505605 -0.994724
0.0620667 0.219292 -0.138146 -0.431934 -0.847817 -0.307633
-0.0722942 0.0510578 -0.0278595 -0.923781 0.00512536 0.382887
-0.064885 0.0291542 0.061624 -0.973977 -0.161914 0.158595
-0.075882 0.316614 0.295885 -0.654855 -0.570657 0.495495
0.0820257 0.356653 -0.186626 0.282175 0.479438 0.830973
0.128215 0.252938 -0.152859 0.807547 -0.461803 0.366886
-0.0697014 0.0538315 0.0233343 -0.991718 0.0944775 0.0869967
0.0630918 0.319026 -0.116559 -0.0557876 0.707372 -0.704637
-0.199691 0.00256006 -0.101907 -0.355178 -0.510961 0.782795
0.0196163 -0.399978 0.0443032 -0.936416 -0.347242 -0.0504738
-0.0709526 0.0869356 0.00726084 -0.639774 -0.637551 -0.429206
0.0100891 0.206147 0.166001 0.221501 -0.934903 0.277297
-0.121905 0.0183607 -0.120539 0.370764 -0.689886 -0.621765
-0.134146 -0.156612 -0.125725 -0.947281 -0.288301 -0.139787
-0.183048 -0.0945037 -0.121865 -0.936885 -0.326914 0.123995
-0.156577 0.0217224 -0.142367 0.682756 -0.680455 -0.26613
0.050007 -0.39636 0.0807388 -0.0906893 -0.208802 0.973744
-0.0124928 0.123778 0.121983 -0.328057 -0.138643 0.934429
0.013707 0.391143 0.00120457 0.616652 0.271896 -0.738791
-0.0651563 0.11196 -0.0420297 -0.992003 0.0763457 -0.100505
0.0502482 0.381737 -0.266342 -0.891322 -0.432804 0.135005
0.0373442 -0.212569 0.0891806 0.428325 -0.00341139 0.903618
-0.154165 0.0228078 -0.140679 0.547016 -0.766787 -0.335873
0.0412033 -0.13213 0.0417405 0.948389 0.299696 0.103636
0.035294 -0.0815997 0.057373 0.981443 0.144515 0.126037
-0.0664226 0.132461 0.0694327 -0.937825 0.0432572 0.344402
0.0229931 -0.0445461 0.0193055 0.87183 0.0449598 -0.487741
-0.0235577 -0.207021 0.0603879 -0.873755 -0.223152 0.432152
-0.0958862 -0.118261 -0.0818873 0.319832 0.462409 0.826974
-0.0619605 0.402721 -0.013629 -0.409531 -0.28294 -0.867312
0.061705 -0.478366 0.092678 0.214751 -0.522381 0.825227
-0.0460943 0.26741 0.133078 -0.960962 -0.163026 0.223551
0.0556148 0.26741 -0.17927 -0.970681 0.0298199 -0.238514
-0.00540767 0.211935 0.175167 -0.570882 -0.78346 -0.245528
-0.0682241 0.0865738 0.00633751 -0.853742 -0.431566 -0.291335
0.0323394 -0.0460837 0.0736838 0.839241 0.199529 0.505828
-0.154225 -0.0120751 -0.0985901 0.409284 0.212423 0.887335
0.0478362 0.34604 0.0980446 0.766597 0.530472 0.361841
-0.0605058 -0.00700247 0.0081314 -0.833825 -0.326642 -0.445017
-0.140417 0.102312 -0.11077 -0.142286 0.986664 -0.0790529
-0.0562679 0.147295 -0.0307237 -0.711657 0.30943 -0.630712
0.13533 0.26934 -0.194345 0.979023 0.0456564 -0.198569
-0.0788367 0.399344 0.0345046 -0.850695 -0.131153 0.509036
-0.176295 0.00950433 -0.109444 -0.459862 -0.876956 -0.139554
0.0419269 0.359064 -0.0502907 -0.107988 0.961002 -0.254586
0.0103906 0.2855 0.224371 0.623815 0.666216 0.408669
0.0093052 -0.274315 0.0622572 -0.939299 -0.164148 0.301286
0.072619 0.10804 0.0777238 0.796304 -0.149306 0.58618
-0.166526 -0.114161 -0.114027 -0.697836 -0.505026 0.507911
-0.0990217 0.350381 0.323864 -0.02532 -0.487331 0.87285
-0.127151 0.104181 -0.106127 -0.0723819 0.980895 0.18057
-0.0542055 0.371607 0.0441675 -0.713962 -0.148321 0.684295
-0.165441 -0.0520533 -0.159613 0.215267 -0.0573064 -0.974872
0.0135864 0.272716 0.239445 0.825353 0.552775 0.115035
0.0642978 0.405133 -0.303727 0.298915 0.31166 -0.901952
0.0525998 -0.406249 0.0795931 0.0544965 -0.0245391 0.998212
-0.0405318 0.284053 0.192533 -0.928082 0.327675 0.176896
0.0589312 0.200478 0.0958738 0.677622 -0.0394813 0.73435
0.0279376 -0.307118 0.0107205 -0.106773 -0.121988 -0.986772
-0.183531 0.0299833 -0.170225 0.25131 -0.0764756 -0.964881
0.0635139 -0.41855 0.0836934 0.0708273 0.443511 0.893466
-0.0534739 0.448789 0.0535741 -0.465631 0.145049 0.873011
-0.0125833 0.20289 -0.063074 -0.409407 -0.0785087 -0.908968
-0.0732439 0.0542235 -0.031598 -0.887011 0.0886356 0.453161
0.0112348 -0.139125 0.081583 0.200627 0.0190467 0.979482
-0.0876554 0.00734489 -0.0720586 -0.00958721 -0.990436 0.137641
-0.204153 0.0511482 -0.0894246 -0.468433 0.328979 0.819966
-0.00374948 -0.00968577 0.101421 0.32685 -0.134888 0.935401
-0.0693245 0.0971261 -0.0116843 -0.87624 -0.463332 -0.132391
0.0333645 -0.175425 0.0891806 0.375606 0.360297 0.853877
0.0515144 -0.156853 0.0416953 0.954692 0.261779 -0.141549
-0.0431473 -0.115427 0.0407757 -0.923038 -0.301497 -0.238958
0.0484995 -0.154079 0.0657847 0.888011 0.29109 0.355952
0.0314349 0.381496 -0.289737 -0.816452 -0.534428 -0.218615
0.0182295 -0.381888 0.0242614 -0.749995 -0.0888653 -0.655446
-0.162788 0.0122027 -0.154909 0.972126 0.0264369 0.232962
-0.0182815 0.494375 0.00655609 0.235405 0.94827 -0.212998
-0.0548961 0.25318 0.0168465 -0.946321 0.142631 -0.290057
-0.109092 0.365094 0.332788 0.0173414 -0.467337 0.883909
-0.000161691 0.258727 -0.0739881 -0.725362 0.151941 -0.67139
-0.050076 0.263792 0.000141802 -0.920893 0.19497 -0.337555
-0.183048 -0.100714 -0.127654 -0.872701 -0.481702 0.0797314
-0.0659252 0.0757803 0.0102494 -0.971341 -0.172852 -0.163151
-0.0744198 -0.120734 -0.115353 0.908337 0.233439 -0.34703
0.064539 0.338804 0.0546897 0.884549 0.427297 0.187057
-0.0206633 0.318061 0.276107 0.848762 0.528775 0.000609045
-0.0353008 0.150551 -0.0524011 -0.634867 0.304551 -0.710065
0.0293847 -0.210398 0.0100647 0.343285 -0.0281083 -0.938811
-0.0732288 0.0165216 -0.0421202 -0.470388 -0.724989 0.503115
-0.00492529 -0.123447 0.0856833 -0.167173 -0.260946 0.950768
0.00788823 -0.284204 0.0741059 -0.872882 0.0385751 0.486404
0.105301 0.248838 0.00577975 0.996498 0.0337101 0.0765238
-0.00281484 0.381254 0.0729301 -0.122227 0.607744 0.784671
-0.0483066 0.278023 0.137902 -0.987538 -0.0689086 0.14149
0.049404 0.00501394 0.0485693 0.582923 -0.778958 0.231139
-0.125764 0.385596 0.305774 -0.735637 0.638039 0.227477
-0.0233918 0.262345 -0.0500495 -0.782386 0.0198188 -0.622478
0.0348719 0.400068 -0.297938 -0.782836 0.240835 -0.57373
0.0040291 -0.0749066 0.00557624 0.269629 -0.04375 -0.96197
-0.227428 0.0410783 -0.1086 -0.813069 0.0576668 0.579304
-0.187269 -0.0296824 -0.118971 -0.761495 -0.153365 0.629765
-0.148557 -0.0428276 -0.154789 0.400371 0.051605 -0.914899
0.0711719 -0.337508 0.0250302 0.619518 -0.144107 -0.771642
-0.0738017 0.346522 0.251023 0.11793 0.344828 -0.931228
0.0379472 -0.0913681 0.03005 0.959555 0.0609328 -0.274849
-0.139512 -0.0672486 -0.152015 0.435957 0.078732 -0.896517
0.0968592 0.243532 -0.105042 0.599116 -0.738091 0.310291
-0.0641614 0.279711 0.0521571 -0.961336 0.209964 -0.178182
-0.0508674 0.326985 0.0367357 -0.879818 -0.464256 0.101917
0.0699056 -0.464618 0.0885776 0.366326 -0.144483 0.919201
-0.0197287 0.185162 -0.0566823 -0.425514 -0.00352923 -0.904945
-0.203188 0.0450279 -0.172275 0.00690268 0.125331 -0.992091
-0.0368385 -0.0597414 0.0814021 -0.535177 -0.274794 0.798795
0.0816639 0.0379729 0.0320625 0.924787 -0.351007 0.146842
-0.0196985 -0.216187 0.063222 -0.887288 -0.222731 0.40387
-0.0691738 -0.12803 -0.0918969 0.63307 0.736521 0.238241
0.0375854 -0.368381 0.0846582 -0.475742 0.271339 0.836687
0.0611623 0.0364956 -0.043507 0.697135 -0.604668 -0.385201
-0.0421297 0.324332 0.148274 -0.910401 0.399991 0.105726
-0.0247787 0.117085 -0.0926808 0.00866606 0.582086 -0.813081
-0.202103 0.0169513 -0.16516 0.0591324 -0.416678 -0.907129
-0.0162012 -0.0633292 0.000880463 -0.13543 -0.118524 -0.983672
-0.0589041 0.294906 0.241857 -0.344652 0.275071 -0.897525
-0.0675683 0.115819 -0.0410348 -0.938705 0.0135677 -0.344456
-0.0580637 0.340734 0.0509511 -0.834411 -0.390925 0.388505
0.0908293 0.156098 0.0485995 0.978703 0.0214614 0.204157
-0.0519599 0.205302 0.086829 -0.875034 0.00147713 0.484059
0.0269125 -0.371276 0.024902 -0.25857 0.0339581 -0.965396
0.112416 0.338322 -0.227509 0.968459 0.233374 -0.0873167
-0.153984 -0.231382 -0.122348 -0.87088 0.304445 0.385852
0.0961356 0.294665 0.00630736 0.968791 0.212708 0.127276
-0.20367 0.0813278 -0.121865 -0.486968 0.829055 0.274826
0.0275155 0.0808455 0.110587 0.593457 -0.279529 0.754767
-0.000945606 -0.0440938 0.0974416 0.349372 0.0952494 0.93213
0.00849116 0.280676 0.236551 0.291995 0.909837 0.294849
-0.0548942 0.00589016 0.079774 -0.799366 -0.0839625 0.594949
-0.0121612 0.480386 0.0494738 0.217066 0.714498 0.665113
-0.0359038 0.316855 0.171549 -0.790042 0.487003 0.372372
-0.0369289 0.246547 0.146465 -0.899687 -0.357756 0.250147
-0.0234823 0.322161 0.276831 0.82838 0.559917 0.0166991
0.0856436 0.33591 -0.0517378 0.780528 0.624971 -0.0137067
-0.0409087 0.340975 0.0261382 -0.95068 0.215952 -0.222648
-0.0757162 0.276576 0.252108 -0.976576 -0.132208 -0.169768
0.0800961 -0.479813 0.0867687 0.182826 -0.362533 0.913863
-0.0154173 -0.19255 0.0726587 -0.656392 -0.13256 0.742683
-0.0830877 0.386078 0.30095 0.265383 0.964127 -0.00553355
-0.0317583 0.264275 -0.0393464 -0.797361 0.155364 -0.583162
0.0735838 -0.272868 0.050529 0.979748 0.154712 -0.127114
-0.0596164 0.279229 0.0386351 -0.909951 0.222845 -0.349756
0.0671921 0.227131 -0.0987107 0.360732 -0.922126 -0.139841
0.0589915 0.34194 0.0729301 0.851985 0.468448 0.233835
-0.0182815 -0.0577515 0.095512 -0.362059 -0.217365 0.906458
0.0519366 0.395967 -0.24994 -0.670268 -0.0094135 0.742059
-0.0932029 0.106171 -0.0783899 -0.427371 0.855239 0.293121
0.072016 0.0948348 -0.0599988 0.740429 0.196721 -0.642702
0.0315555 0.289841 -0.1127 -0.821067 0.0877981 -0.56404
-0.201861 0.0816293 -0.147553 -0.20375 0.904187 -0.37541
-0.0615987 0.302866 0.306739 -0.435141 -0.241554 0.867355
0.0235358 0.0088825 -0.0252365 0.154219 -0.899364 -0.409099
-0.0287132 0.1403 -0.063677 -0.460739 0.609729 -0.644943
-0.0425594 -0.0139745 -0.00517204 -0.315224 -0.449204 -0.835972
0.0394547 -0.126944 0.0466699 0.959101 0.256065 0.120645
-0.0192463 0.254627 0.301674 0.0960863 -0.369515 0.924244
-0.0295725 0.273922 -0.0376581 -0.8419 0.221437 -0.492107
-0.0162012 -0.155406 0.0150764 -0.716689 -0.124925 -0.686112
-0.0908512 -0.145517 -0.0719983 -0.230376 0.273251 0.933949
0.0915529 0.191554 -0.0208347 0.809636 -0.0928674 -0.579539
0.0904675 0.0807852 0.0377005 0.965325 -0.130669 0.225993
-0.0091462 -0.0211049 -0.00370979 0.316486 -0.159087 -0.935162
0.016722 0.24727 0.247646 0.988272 -0.105615 0.110291
-0.0640258 -0.13418 -0.0927411 0.674977 0.73749 0.0226795
-0.00335753 0.165867 0.130666 -0.259204 -0.197966 0.945316
0.0931206 0.293218 -0.154186 -0.248795 0.968486 0.0116468
-0.00368918 0.421052 -0.0191162 0.314724 -0.272903 -0.909106
-0.062767 0.121788 0.0748295 -0.916535 -0.0543034 0.39625
-0.215368 -0.0373102 -0.145261 -0.267591 -0.545223 -0.794435
-0.0721435 0.249803 0.233777 -0.943828 -0.23433 -0.232977
0.0171441 0.403444 0.0585488 0.444635 0.342991 0.82744
-0.000282304 0.462296 -0.020503 0.480879 0.286284 -0.828732
0.0944472 0.16044 -0.0187242 0.953051 -0.0963267 -0.287081
-0.058938 0.105327 -0.0381103 -0.987494 0.0426351 -0.151783
0.0466905 -0.147446 0.0596342 0.933561 0.319061 0.163293
0.044158 -0.344744 0.0749199 -0.540666 0.281494 0.792743
0.0745486 0.0571781 -0.0440497 0.867171 -0.346102 -0.358088
0.0138276 0.22098 0.188071 0.600833 -0.7686 0.219667
-0.132638 -0.178319 -0.111976 -0.979381 -0.0298044 0.199809
0.0178074 0.0542838 -0.0956354 0.185071 -0.489996 -0.851853
-0.0166836 0.486416 0.0409415 0.137974 0.891772 0.430936
-0.00585994 -0.47306 0.0512225 -0.101642 -0.160566 -0.981778
0.0492833 0.00255442 0.0155453 0.595245 -0.743392 -0.305043
0.10904 0.243049 -0.130187 0.716475 -0.621094 0.317659
-0.016563 0.217724 0.245958 -0.0256371 -0.955414 0.294153
0.103492 0.246547 0.0180958 0.946414 -0.0164218 0.322539
0.043555 0.288394 0.137842 0.932993 0.102727 0.344923
-0.103303 -0.236688 -0.14297 0.444063 -0.822567 -0.355236
0.00695359 0.280194 0.269595 0.739677 0.67176 0.0402034
-0.0384213 0.334462 0.0544485 -0.503651 -0.652659 0.566014
-0.0231959 -0.482949 0.0666891 0.252175 0.534147 0.806904
-0.0618324 0.249803 0.084417 -0.966982 -0.115271 0.227285
0.0395149 0.201684 0.1253 0.833477 -0.156336 0.529977
-0.236352 0.0394201 -0.158286 -0.833983 -0.0209474 -0.551393
-0.024839 0.270304 -0.0478184 -0.781793 0.127629 -0.610336
0.0456051 0.228336 0.125661 0.876 -0.182779 0.446337
-0.0789874 0.466396 -0.0032274 -0.711022 0.445319 -0.544186
-0.0598802 0.209885 0.00326227 -0.953957 0.22278 -0.200837
0.00671236 0.478697 0.0084932 0.677213 0.701846 -0.220894
-0.0423558 0.462296 -0.0262013 -0.18565 0.217124 -0.958327
0.0674937 0.289359 -0.137061 -0.23883 0.898432 -0.368484
0.0828698 0.25125 -0.197721 -0.392306 -0.491189 -0.777708
0.0405401 0.0940509 0.100457 0.642406 -0.224009 0.732894
0.076237 -0.428921 0.0362081 0.470498 -0.153318 -0.86898
-0.0384741 -0.112895 0.0314143 -0.874872 -0.186479 -0.447017
0.0523586 0.22098 -0.0983489 -0.261033 -0.950877 -0.166415
-0.0257586 0.138732 -0.0671744 -0.41349 0.641307 -0.646337
0.0919146 0.142591 0.000865388 0.989906 -0.121794 -0.0724756
0.0320982 0.02023 -0.0409745 0.346131 -0.873737 -0.341726
-0.222242 -0.00670852 -0.159733 -0.716715 -0.0892424 -0.691633
0.0596548 -0.424821 0.0961753 0.0377161 0.31908 0.946977
-0.0719475 0.0264709 0.0312485 -0.996635 -0.0720643 0.0390438
-0.0464901 0.336392 0.0260176 -0.981072 -0.0166166 -0.192929
-0.0637619 0.223271 0.0285049 -0.96918 0.126134 -0.211611
0.00556667 0.0871165 0.119692 0.0335218 -0.122692 0.991879
0.0770812 -0.413726 0.0788695 0.516419 0.307559 0.799199
-0.144457 -0.141054 -0.119212 -0.593969 -0.545426 0.591363
-0.0524985 0.326503 0.0186799 -0.897155 -0.35813 -0.258567
-0.160858 -0.0168387 -0.158768 0.383974 0.104412 -0.917421
-0.161341 0.0104239 -0.147312 0.824974 0.377795 -0.420344
0.0112951 -0.184228 0.0864069 -0.295366 0.0173317 0.955227
0.0902263 0.386802 -0.228233 0.746883 0.550032 0.373671
-0.0762136 0.2896 0.256811 -0.894006 -0.15874 -0.418993
0.0254654 -0.146602 0.077362 0.29725 0.113992 0.947971
0.0235358 -0.0823836 0.0897233 0.634105 -0.0965573 0.767194
-0.190284 -0.0423452 -0.154547 -0.628575 -0.336031 -0.701411
0.0021598 -0.0712283 0.0959341 0.068003 -0.251716 0.965409
0.111331 0.2937 -0.0959972 0.946817 0.242045 0.212017
-0.0271907 0.292736 0.21207 -0.602905 0.48633 0.632446
-0.0415569 0.283811 0.189277 -0.93331 0.268252 0.23869
-0.0367028 0.0146071 -0.0310553 0.156396 -0.985365 -0.0677949
-0.16936 -0.00933155 -0.161542 0.441812 0.143428 -0.885568
-0.120156 -0.0856397 -0.143694 0.555026 0.0627388 -0.829463
-0.131794 -0.0533497 -0.14707 0.621812 0.119967 -0.773924
-0.0538296 0.420569 0.0562574 -0.430479 0.0115113 0.902527
0.0408415 -0.20075 0.016643 0.604261 -0.00173298 -0.796785
-0.0120406 -0.240789 0.0557449 -0.900855 -0.399693 0.169429
0.00218992 -0.45087 0.065453 -0.629371 0.744903 -0.221385
0.0459067 -0.487049 0.0928589 -0.0444934 -0.886578 0.460435
-0.0633248 0.101226 -0.0367837 -0.976455 0.0666234 -0.205176
-0.220313 -0.0236073 -0.150447 -0.706731 0.165558 0.687839
0.00978758 0.459161 0.0520968 0.701902 0.359715 0.614767
-0.0210251 0.401997 -0.0174579 0.139342 -0.374684 -0.916622
-0.0538937 0.242205 0.258741 -0.655565 -0.638868 0.402594
-0.00492529 0.288394 0.253797 0.557497 0.722428 -0.409017
-0.0362506 -0.170118 0.0574936 -0.959054 -0.080936 0.271413
-0.0280951 0.282123 -0.0351557 -0.853729 0.262601 -0.449653
-0.0528145 0.0554596 -0.119333 0.66961 -0.156778 -0.725977
-0.0574984 0.219171 0.00255376 -0.934629 0.210353 -0.286743
0.115552 0.295389 -0.164557 0.497654 0.826675 0.26258
-0.0223366 0.198549 -0.0556573 -0.512454 0.0527501 -0.857093
-0.0762438 0.10991 -0.0163123 -0.869119 -0.209009 -0.448271
0.0724984 -0.489461 0.0811609 -0.10092 -0.872317 0.478412
-0.0218994 -0.0147434 0.103532 -0.263013 -0.0960428 0.96
-0.0512056 0.293459 0.114808 -0.9864 0.0265725 0.162198
0.00351653 -0.287098 0.0200517 -0.538544 -0.212918 -0.815252
0.000622158 0.209764 0.168293 -0.074365 -0.996835 0.0281174
-0.0645383 -0.203403 -0.0848419 0.3308 -0.796703 0.505802
0.0952914 -0.452317 0.0480869 0.682654 0.057306 -0.728491
0.00369745 0.255592 0.29082 0.694853 -0.20526 0.689237
-0.00917638 0.299489 0.218582 -0.212622 0.678995 0.702678
0.0910705 -0.405284 0.0639455 0.947725 -0.0334007 0.317336
0.100718 0.182509 0.00221457 0.982601 -0.132672 -0.129977
-0.203309 -0.0532291 -0.12078 -0.830399 -0.218329 0.512611
0.0562178 -0.17856 0.0423586 0.981764 0.190103 -0.000535997
0.00451148 0.220015 0.246922 0.524189 -0.800935 0.289359
0.0915529 0.175756 0.0295827 0.981088 -0.0179635 0.192725
-0.0190352 0.293218 0.297574 0.530756 0.258038 0.807289
-0.0187036 0.480627 -0.0169454 0.152014 0.707093 -0.690587
0.0588106 0.420569 -0.275025 -0.0911606 0.918569 0.384604
-0.0685708 0.0691474 0.009311 -0.992826 0.0448206 0.110852
-0.140176 -0.111267 -0.0922587 -0.39983 -0.356054 0.844608
-0.139633 0.361476 0.309633 -0.599012 0.447814 0.663813
0.097221 0.312755 -0.0522202 0.957959 0.259388 0.122604
0.00424014 0.432629 0.0606894 0.482556 0.0725868 0.872852
-0.164295 -0.252125 -0.13284 -0.920564 -0.299114 0.251184
-0.109634 0.354241 0.325793 -0.182676 -0.637798 0.748226
0.0685187 -0.286616 0.0327861 0.821587 0.16534 -0.54558
-0.23985 0.0335108 -0.125845 -0.943472 0.0152079 0.331103
-0.0566617 0.265481 0.213879 -0.685446 0.661967 -0.303257
0.0596548 -0.424821 0.0961753 0.0377161 0.31908 0.946977
-0.0532784 0.484004 -0.00508159 -0.33433 0.847895 -0.411457
0.0656244 -0.280827 0.0823065 0.721002 -0.0316474 0.69221
-0.0372153 0.00831343 0.0959341 -0.544183 -0.102818 0.832643
-0.0759122 0.073911 0.0307962 -0.771015 -0.557404 -0.307958
-0.0109854 0.203735 -0.0639182 -0.409407 -0.0785087 -0.908968
-0.0362807 -0.167345 0.0595739 -0.959215 -0.0731031 0.273063
-0.0615459 0.280435 0.0923162 -0.971949 0.137561 0.190769
-0.228875 0.0492186 -0.111615 -0.755903 0.249713 0.605189
0.0686996 0.370401 -0.192053 -0.346242 0.644333 0.681873
-0.0717666 0.0994175 -0.0154078 -0.912139 -0.343776 -0.223204
0.0525998 0.385114 -0.226544 -0.880947 0.226189 0.415658
-0.00712624 0.0500327 0.118124 -0.0464355 -0.0770256 0.995947
0.064539 0.337116 -0.217861 -0.831626 -0.300546 -0.466981
0.0146116 0.301419 0.200854 0.653323 0.521841 0.548499
0.052238 0.389937 -0.306621 -0.0302956 -0.664106 -0.747024
-0.0930823 0.383425 0.326758 0.364989 0.546833 0.753497
-0.131432 -0.13213 -0.0926205 -0.765955 -0.184765 0.615771
-0.0280348 0.166349 -0.0563206 -0.439467 0.124321 -0.889614
-0.0654352 0.105568 -0.107816 0.152825 0.63479 -0.757421
0.0734632 0.144521 -0.0374772 0.751518 0.110366 -0.650416
-0.0363561 0.419363 -0.020503 -0.0794601 -0.248221 -0.965439
-0.0536958 0.20277 0.0834522 -0.891046 -0.00924883 0.453818
-0.0106838 0.0171397 -0.0338291 -0.141341 -0.989264 -0.0371385
-0.0368988 0.300936 -0.00230784 -0.875009 0.358738 -0.325065
-0.13095 0.38246 0.305774 -0.627803 0.626691 0.46165
-0.0530285 -0.0450586 0.0178885 -0.832775 -0.273597 -0.48128
-0.0462188 0.326744 0.0173402 -0.678787 -0.659542 -0.322882
-0.158507 0.0956187 -0.109323 -0.340877 0.854486 0.39199
0.00466221 0.433835 0.0602673 0.554116 0.0973996 0.826722
0.0245005 -0.0372801 0.0284446 0.899669 -0.261429 -0.349643
0.0439771 0.0989954 -0.08243 0.538481 0.178028 -0.823616
0.0179882 0.252938 0.237154 0.99366 0.0136872 0.111593
-0.156396 -0.250678 -0.121383 -0.17139 -0.98243 0.0738697
-0.0357833 0.289118 0.200734 -0.821669 0.324652 0.468467
0.128576 0.240637 -0.186023 0.69358 -0.680981 -0.23497
-0.0581014 -0.0601936 0.0463383 -0.963986 -0.265484 0.015803
-0.0347883 0.289118 0.241375 0.141803 0.576893 -0.804417
-0.0662267 0.199996 0.0524586 -0.99321 0.0553972 0.102295
-0.0479448 0.333498 0.30288 0.636657 0.0289077 0.770605
0.0640566 0.326021 0.0818845 0.897078 0.332083 0.2915
-0.0481935 0.298042 0.13754 -0.990995 0.0341401 0.129475
-0.0675607 0.0458419 -0.00690563 -0.994666 -0.0986045 0.0302836
0.00846104 0.222186 0.233416 0.649534 -0.742897 0.161897
0.134124 0.265481 -0.156959 0.945941 -0.0369904 0.322222
-0.0245827 -0.155285 0.069282 -0.73544 -0.0793451 0.672929
-0.146507 -0.252366 -0.130066 -0.0373312 -0.987252 0.154726
-0.0503624 0.224357 -0.0166439 -0.90283 0.154452 -0.401302
-0.0370947 0.277299 0.233536 0.0681258 0.868948 -0.490193
-0.0114075 0.304313 0.213276 -0.237293 0.692097 0.681684
0.0820257 0.0536808 -0.00660414 0.921933 -0.328068 -0.20594
-0.0494824 0.41864 -0.0200809 -0.179932 -0.203604 -0.962377
-0.0855148 0.0989954 -0.0624107 -0.5579 0.590944 0.582695
-0.135111 -0.0637513 -0.149965 0.509391 0.100264 -0.854674
-0.111624 0.360029 0.329411 0.0173414 -0.467337 0.883909
0.0908293 0.225683 -0.0313267 0.882471 -0.114094 -0.45632
-0.0720078 0.0541029 -0.00301635 -0.990291 0.122358 0.0659673
0.016722 -0.00455663 0.0045587 0.406095 -0.69281 -0.595904
0.087332 0.34411 -0.182767 0.133462 0.568542 0.811756
0.0526601 0.234005 -0.127172 -0.79675 -0.533619 -0.28362
0.0550118 0.302384 0.108476 0.88326 0.0749513 0.462854
0.0860054 0.322161 -0.170828 -0.0168186 0.1793 0.983651
-0.080525 0.0964026 0.0417556 -0.983116 0.020677 0.181811
0.0305907 0.393073 0.0202929 0.790383 0.494609 -0.361463
-0.0562491 0.230387 0.225938 -0.665792 -0.650879 -0.364799
0.0728602 -0.409867 0.0321982 0.460719 0.000107053 -0.887546
0.0141291 -0.072374 0.093703 0.41884 -0.109676 0.901412
0.0343896 -0.0199894 0.0217853 0.549442 -0.616206 -0.564273
0.029626 -0.402872 0.0845376 -0.6488 -0.134569 0.748965
0.00194876 0.238828 -0.0744102 -0.723527 -0.0460132 -0.688761
0.0182898 0.256074 0.232571 0.976505 0.0727006 0.20286
-0.190043 0.00854707 -0.0983489 0.401627 -0.72846 0.555015
-0.0729877 0.0496709 0.00882484 -0.994216 0.104871 0.0231847
0.0348116 -0.114583 0.0192641 0.835801 -0.0232494 -0.54854
0.0367412 0.206508 0.132897 0.775627 -0.313985 0.547555
0.0115363 0.0684841 -0.102329 0.141392 -0.289766 -0.946596
-0.0624353 0.249079 0.0828492 -0.966982 -0.115271 0.227285
-0.163873 0.0911565 -0.105524 -0.335192 0.831016 0.443912
0.0981858 0.203855 0.018011 0.945269 -0.0597136 0.32078
0.0383693 -0.166621 0.0176944 0.68281 0.206926 -0.700679
-0.0666864 0.242808 0.0494135 -0.996271 0.0399228 -0.076492
0.050007 0.239673 0.113602 0.866871 -0.0886848 0.490581
-0.0180403 0.377395 -0.00147873 -0.220054 -0.0555903 -0.973902
-0.0266932 0.450236 -0.0288846 -0.00494126 -0.13113 -0.991353
0.0690614 0.384872 -0.293114 0.634083 -0.453787 -0.626112
-0.128839 -0.166139 -0.0967208 -0.820601 -0.0106049 0.571403
-0.118046 -0.101498 -0.0844198 0.124927 -0.0751763 0.989314
-0.09667 0.359064 0.326517 0.0411944 -0.455176 0.889448
-0.114428 0.0317471 -0.136699 0.523272 -0.510515 -0.68232
0.0556751 0.360029 0.0263718 0.739084 0.673377 0.0178535
-0.127332 -0.141657 -0.0979268 -0.827969 -0.128948 0.545747
-0.0559645 0.486657 0.0247287 -0.405598 0.890462 0.206321
0.0352337 -0.292163 0.00920548 0.163853 0.0293181 -0.986049
-0.158808 -0.0350791 -0.158286 0.288276 0.00313939 -0.957542
-0.0532878 -0.166983 -0.102148 0.79573 0.273557 -0.540353
-0.0874443 -0.166259 -0.0678376 -0.23018 0.0893809 0.969035
0.0403591 -0.439775 0.0335248 -0.331863 -0.0628759 -0.94123
-0.133121 -0.0307075 -0.140437 0.691332 0.421581 -0.586796
-0.168154 0.0111852 -0.0905703 -0.305328 -0.72931 0.612276
-0.092027 0.359788 0.324346 0.163807 -0.306762 0.937585
0.049826 0.258004 -0.157442 -0.996446 0.0537347 -0.0648689
-0.222604 0.00666275 -0.150327 -0.810733 -0.105797 -0.575776
0.0568208 0.317096 -0.204716 -0.989704 -0.12036 -0.0774529
-0.0573966 0.378601 0.291302 0.708225 0.657988 0.255869
-0.0567936 0.237261 0.220873 -0.639812 -0.478718 -0.601224
0.073222 0.294906 -0.217258 -0.740372 -0.351844 -0.572761
0.0876937 -0.36211 0.0595739 0.986221 0.125069 -0.108287
-0.0340949 0.179374 0.121561 -0.6369 -0.192636 0.746492
-0.065096 -0.0277528 0.039419 -0.980702 -0.174743 -0.0876895
-0.0474398 0.280676 0.00710632 -0.90234 0.290088 -0.318798
-0.0581466 0.381254 0.286479 0.540379 0.831544 -0.128548
0.0480774 -0.418309 0.0363287 -0.203809 -0.164546 -0.965084
-0.18534 -0.0125424 -0.16709 0.00382912 -0.074942 -0.997181
0.0240784 0.388973 0.00329242 0.706117 0.329433 -0.626795
0.107954 0.337116 -0.200013 0.841426 0.448842 0.300905
0.0606196 0.294906 -0.195309 -0.996599 0.022191 -0.0793588
-0.167732 -0.0704445 -0.158889 -0.29457 -0.391243 -0.87187
-0.122146 -0.135869 -0.0844801 -0.346447 -0.0716902 0.935326
-0.0485553 0.301178 0.1455 -0.983287 0.167502 0.0713357
0.10301 -0.477402 0.0498959 0.82892 -0.205094 -0.520411
0.0281185 -0.453523 0.0931 -0.00368153 0.412681 0.910868
0.0761164 0.354723 -0.249217 -0.0538825 -0.736849 -0.673907
-0.0381274 -0.0289136 0.0928589 -0.519885 -0.170323 0.837084
0.0919146 0.162249 0.0267411 0.986691 -0.0879056 0.136794
-0.17931 -0.0725549 -0.144297 -0.664904 -0.256839 -0.701382
-0.0151158 0.336633 0.17782 -0.36339 0.714973 0.597295
0.034691 0.119376 -0.0773649 0.518792 0.292147 -0.803433
-0.0369892 -0.179404 -0.0831535 0.961489 0.140095 -0.236457
0.0486804 -0.299882 0.086829 -0.0941749 0.00201007 0.995554
0.00164723 0.361959 -0.0072222 -0.143718 0.294642 -0.944739
-0.14518 0.0598313 -0.146709 0.276473 0.230631 -0.932937
-0.0870825 0.321679 0.279243 -0.78116 -0.56152 0.272919
-0.0321201 0.303348 0.199166 -0.760509 0.446754 0.471208
0.0857642 0.146089 -0.0301508 0.804777 -0.203339 -0.557662
-0.122267 0.0756597 -0.0698275 -0.310426 0.433853 0.845817
0.0600166 -0.269973 0.0857436 0.334715 -0.170012 0.926856
0.073825 -0.427956 0.0320776 0.489654 -0.244564 -0.836915
-0.0164725 0.32385 -0.0305729 -0.80347 0.409906 -0.431755
0.05465 -0.314353 0.0877334 -0.0191526 -0.0566389 0.998211
-0.0419337 -0.101438 0.0326957 -0.845632 -0.188914 -0.499217
-0.0579469 0.370883 0.30288 0.558771 0.550113 0.620606
0.0270934 0.159596 -0.0754353 -0.113733 0.094694 -0.988988
-0.14705 -0.2391 -0.110288 -0.714095 -0.0361435 0.699115
0.00626016 0.168761 0.131028 -0.0115526 -0.170196 0.985343
-0.212353 0.031325 -0.172999 -0.135551 -0.208828 -0.968513
-0.0302056 0.247873 0.179508 -0.840202 -0.527544 -0.125526
-0.041278 0.216638 0.228592 -0.447475 -0.892042 -0.063454
-0.028261 -0.106141 0.0173628 -0.706575 -0.177486 -0.685018
-0.0844897 0.360512 0.322658 0.319889 -0.205484 0.924904
0.106748 0.331327 -0.186265 0.745253 0.400894 0.532805
0.0530822 -0.197615 0.0587598 0.95916 0.175752 0.221636
-0.0926602 -0.0946243 -0.0995549 0.786064 0.46508 0.40719
0.0517556 0.175273 0.102085 0.693532 -0.0441731 0.71907
0.115311 0.295871 -0.232092 0.663325 -0.021395 -0.748026
-0.116297 -0.082263 -0.0873142 0.287424 0.253034 0.923775
-0.00959846 -0.242477 0.0268467 -0.893567 -0.259846 -0.366086
0.114949 0.240034 -0.192897 0.264953 -0.841728 -0.470419
-0.186063 -0.0266976 -0.11475 -0.790436 -0.347659 0.504326
0.0557956 0.075298 -0.0736263 0.617453 -0.135643 -0.774825
-0.146989 0.0370082 -0.0705511 -0.37075 -0.0674945 0.926277
0.0135864 -0.144311 0.0810403 0.215472 0.0896146 0.972389
0.0875731 0.348693 -0.25187 -0.0509537 -0.527977 -0.847728
0.0333645 -0.481984 0.0732014 0.0256428 -0.993933 -0.106954
-0.0291504 0.319267 0.00302861 -0.718604 0.175155 -0.673
0.0620064 0.273199 0.0996726 0.851184 0.046789 0.522778
-0.11889 -0.152752 -0.0896658 -0.763749 -0.103698 0.637129
-0.0619304 0.237984 0.0296204 -0.955354 0.140358 -0.259995
-0.0702742 0.156701 0.0606593 -0.96991 0.0386641 0.240374
-0.123835 -0.163847 -0.0915954 -0.817138 -0.0150929 0.576244
0.126164 0.269581 -0.140196 0.921743 0.0802652 0.379404
0.0486201 -0.334373 0.0824272 -0.26454 -0.178281 0.947752
-0.114036 -0.232829 -0.156718 0.30257 -0.32857 -0.894703
0.0743074 0.398621 -0.220273 0.213929 0.603554 0.768087
-0.0154173 -0.19255 0.0726587 -0.656392 -0.13256 0.742683
0.0856436 -0.339438 0.0590613 0.966684 0.115059 0.228657
0.097221 0.281399 -0.0446226 0.992854 -0.0410655 0.112047
0.000682464 -0.108975 0.0875526 -0.0874345 -0.162601 0.98281
-0.0538805 0.280194 0.0246458 -0.915845 0.218381 -0.336953
-0.0218241 0.233763 -0.0477581 -0.710573 0.0434285 -0.702282
0.0888997 -0.489702 0.0531822 0.117277 -0.908367 -0.401392
-0.057521 0.134632 0.0877334 -0.86297 0.0559996 0.502143
0.0202796 0.269581 0.22015 0.950538 0.19563 0.241259
-0.160858 0.0213003 -0.158045 0.609026 -0.530553 -0.589577
-0.12082 0.357135 0.324587 -0.366637 -0.682987 0.631749
-0.0592357 0.131135 -0.0452859 -0.726339 0.473968 -0.497781
-0.05884 0.0328174 -0.118971 0.387767 -0.619121 -0.682881
0.0854024 -0.435192 0.0435042 0.552051 -0.0572262 -0.831844
-0.0420769 0.155375 0.106426 -0.807988 -0.0709961 0.584906
0.0137673 0.28357 -0.0809828 -0.82721 0.138403 -0.54458
0.0632727 0.238225 0.0956929 0.730046 -0.0507941 0.681508
-0.0454311 0.114914 -0.0923793 -0.0420086 0.79689 -0.602662
-0.175933 -0.0401141 -0.0999769 -0.797371 0.0100752 0.603405
-0.211389 0.0153835 -0.166366 0.00419471 -0.514105 -0.857717
0.0664083 0.302625 -0.170708 -0.401097 0.348341 0.847219
0.00837062 0.368953 0.0861657 -0.10445 0.841617 0.529879
0.0781665 -0.371999 0.0350775 0.791338 -0.0268324 -0.610789
0.00478283 -0.200509 0.0107243 -0.364894 -0.0354352 -0.930374
0.0509114 -0.319901 0.0897233 -0.049927 -0.1081 0.992886
-0.0516296 0.271269 0.219306 -0.421865 0.833911 -0.355839
0.0507306 0.229542 -0.117283 -0.706003 -0.706905 -0.0429459
0.0624888 -0.304706 0.0206095 0.593433 0.140998 -0.792437
-0.124498 -0.180972 -0.0906306 -0.757995 -0.0219645 0.65189
0.0706292 0.335668 -0.0850831 0.287564 0.871884 -0.396391
-0.0839771 0.108101 -0.107695 0.022639 0.770273 -0.637312
-0.0700632 0.340734 0.248731 0.218993 0.336278 -0.915947
0.0197369 -0.266597 0.0830904 -0.169207 -0.289688 0.942046
0.026008 0.0979703 0.116798 0.594811 -0.189012 0.781329
-0.0506394 0.127637 0.0987681 -0.808415 0.0235256 0.588143
-0.108609 -0.191223 -0.135975 -0.0831113 0.049206 -0.995325
0.096618 0.287671 -0.0151364 0.986062 0.149253 -0.0735266
-0.0645383 0.308413 0.30698 -0.520525 -0.288316 0.803696
0.0626697 0.0211948 -0.0157997 0.59416 -0.734384 -0.328107
-0.00166915 0.437694 0.0640963 0.312338 0.0318152 0.949438
-0.206685 0.0133559 -0.0915351 -0.366088 -0.484337 0.794605
-0.0368837 0.429011 -0.0226738 -0.0914973 -0.210166 -0.973375
-0.121965 0.0374001 -0.0595767 -0.469457 -0.0758038 0.879695
-0.0132164 0.215312 0.24246 0.0498401 -0.968521 0.243893
-0.077088 0.12824 0.0295375 -0.970548 0.177418 0.162969
0.0314952 -0.0688164 0.0252563 0.859786 0.162407 -0.484141
0.0422284 -0.225352 0.0865275 0.391498 0.0771817 0.916936
0.0780459 -0.488979 0.0712719 -0.0824778 -0.983212 0.162762
-0.106137 -0.0711077 -0.109806 0.874266 0.438381 0.20852
-0.18546 -0.0296824 -0.115956 -0.767028 -0.212532 0.605391
0.0945679 -0.481984 0.0808594 0.340535 -0.395771 0.852878
0.0571222 -0.358251 0.0237639 0.268959 0.053038 -0.96169
0.0223298 -0.0482243 0.0778444 0.818271 0.283095 0.50029
-0.0478393 0.276817 0.134043 -0.989651 -0.0614812 0.129654
0.0106318 -0.00103288 0.0952105 0.470941 -0.309084 0.826246
-0.141201 0.0968849 -0.0993739 -0.307709 0.859821 0.407459
-0.0393409 0.341698 0.0133397 -0.813832 0.0707247 -0.576781
0.0560369 0.185886 0.0981652 0.669015 -0.00462885 0.743235
-0.0973635 0.038184 -0.0498686 -0.472895 -0.0496817 0.879717
-0.0425367 0.137406 -0.0580692 -0.550858 0.634809 -0.541823
-0.188234 0.0743934 -0.159733 0.0208848 0.47644 -0.878959
0.089141 0.314202 0.0149486 0.896783 0.355668 0.26321
-0.0832234 0.107678 -0.108298 0.00640556 0.766049 -0.64275
-0.049929 0.312273 0.112818 -0.943103 0.315565 0.104767
-0.161883 -0.000450623 -0.154186 0.645785 0.363237 -0.671581
0.016722 0.264275 0.244028 0.961643 0.254113 0.103289
-0.0248692 0.230025 0.277796 -0.314312 -0.802649 0.506915
-0.143191 -0.0575706 -0.0915954 0.103571 0.218451 0.970336
0.0348116 0.345799 0.123913 0.714678 0.567681 0.408624
0.0336659 0.404892 -0.283708 -0.913858 0.384771 0.12967
-0.0322708 0.0400834 -0.100399 0.348787 -0.415673 -0.839979
0.0287215 -0.0434607 0.0709101 0.853499 0.168051 0.493252
-0.0728821 0.15851 0.024397 -0.995722 0.0846681 0.0369949
-0.08657 -0.114704 -0.0956354 0.622068 0.507037 0.596612
0.0319776 0.189383 -0.0725409 0.00989648 -0.0983899 -0.995099
0.00526521 0.471944 0.0467001 0.626925 0.565229 0.536172
-0.140899 -0.237774 -0.159974 -0.0920366 0.127094 -0.987611
-0.065586 0.0604041 0.0382733 -0.923736 -0.296743 -0.242188
-0.0725354 0.115035 -0.0751941 -0.376688 0.893035 0.246159
-0.0996247 0.0946539 -0.120056 0.174662 0.552041 -0.815319
-0.0165931 0.300454 0.292267 0.656674 0.358713 0.663404
-0.164054 -0.0351696 -0.159613 0.266218 -0.0113043 -0.963847
-0.0989313 -0.217393 -0.0914748 0.116945 -0.771676 0.625171
0.096015 0.162611 -0.00425248 0.977157 -0.194273 -0.0861522
-0.0402228 0.254627 0.19 -0.788082 -0.372531 -0.490048
0.0926382 0.362441 -0.257658 0.822977 -0.16489 -0.543618
0.0733426 -0.268044 0.0653927 0.959277 0.117723 0.256765
-0.0777965 0.11401 -0.0797165 -0.418411 0.864613 0.278165
-0.066302 0.301178 0.297574 -0.742546 -0.390466 0.544207
-0.0694903 0.384149 0.284308 0.33774 0.912934 -0.229093
0.028842 0.36413 -0.00643831 -0.0112217 0.768861 -0.639318
0.0691217 -0.434469 0.0950899 0.198986 0.0670772 0.977704
-0.0102618 -0.22077 0.0219926 -0.75907 -0.00599655 -0.650981
-0.210906 -0.00975362 -0.152859 -0.509596 -0.318679 -0.799222
0.0562178 0.32795 -0.110891 -0.154756 0.778367 -0.608436
-0.0311251 -0.109398 0.069493 -0.636999 -0.18973 0.747151
0.0257065 0.189142 0.140555 0.533961 -0.484704 0.692783
0.072016 -0.264908 0.0479663 0.96405 0.170644 -0.203686
0.0868496 0.161887 0.0596945 0.944174 0.0087153 0.329331
-0.0304769 0.265239 -0.0410348 -0.8011 0.156407 -0.577734
-0.0242813 0.0183607 -0.0318091 0.0890084 -0.988141 -0.125122
-0.0404338 0.283088 0.23643 0.136672 0.697825 -0.703108
0.0242594 0.0488268 -0.0888819 0.203389 -0.597542 -0.775613
0.0678554 0.283811 -0.161663 -0.227737 0.853048 0.469515
-0.0655332 0.193001 0.00202614 -0.953198 0.232951 -0.192737
-0.17334 0.0409577 -0.160095 0.430291 0.165238 -0.887438
0.0653832 -0.369105 0.0847788 0.398607 0.00803247 0.917087
-0.0987202 0.0745743 -0.0606621 -0.412766 0.331107 0.848524
-0.0648172 0.234969 0.0376402 -0.973089 0.087158 -0.213308
-0.0622696 0.290082 0.0657847 -0.969404 0.245203 0.0114441
-0.0390243 -0.139125 0.0435796 -0.954346 -0.298646 -0.00588911
0.0956532 0.26741 0.0271858 0.844473 0.109155 0.524357
-0.172013 -0.0484957 -0.16118 0.000620954 -0.0560437 -0.998428
0.100236 0.344352 -0.186988 0.552307 0.492049 0.672937
0.00794847 -0.301811 0.071905 -0.667256 -0.158607 0.727745
-0.0177991 0.317096 -0.0329547 -0.818048 0.383288 -0.428821
-0.0628876 0.203493 0.00702341 -0.956761 0.230191 -0.177822
0.0649007 0.332774 0.0669002 0.898456 0.392375 0.197027
0.0451831 0.274887 0.13555 0.942222 0.0334482 0.333314
0.0434947 0.395726 -0.257658 -0.845653 -0.123995 0.519131
0.0468714 0.00205343 0.00921301 0.600335 -0.734316 -0.316824
-0.0425895 0.489069 0.0305852 -0.304489 0.903161 0.302634
0.0944472 0.377154 -0.256694 0.822611 -0.167077 -0.543503
-0.0163218 -0.0400237 0.10118 0.105208 -0.0326643 0.993914
-0.1087 0.0535903 -0.136458 0.410073 -0.0249231 -0.911712
0.0745486 0.0656501 -0.0495671 0.842902 -0.228039 -0.487354
-0.00549817 0.0170794 -0.0739278 0.190551 -0.774585 -0.603082
-0.149281 -0.0984834 -0.0911733 -0.415944 -0.334833 0.845504
0.104939 0.340734 -0.242463 0.41571 -0.0558936 -0.907778
0.0193148 -0.282998 0.0106979 -0.327522 -0.212504 -0.920636
0.0279979 0.398379 0.0208733 0.844945 0.375499 -0.380879
-0.0462037 0.0626654 0.0992505 -0.659975 0.0198214 0.751026
-0.00166915 0.394761 -0.0058504 0.39922 -0.260803 -0.878979
0.0926382 0.146451 0.0223431 0.998918 -0.0123305 0.0448429
-0.0475679 -0.0463852 0.079774 -0.733416 -0.248741 0.632636
0.0232946 0.102131 -0.0947912 0.366048 0.163067 -0.916198
-0.162124 0.0946539 -0.110167 -0.331189 0.851826 0.40584
-0.0854846 -0.213895 -0.089907 0.283035 -0.871918 0.399562
0.0317364 -0.0592892 0.042645 0.984719 0.110567 -0.134549
0.01027 -0.209433 0.0080108 -0.243613 -0.0382638 -0.969117
0.0920352 0.0903727 0.0188458 0.996598 -0.0646817 -0.0510687
0.048801 0.0368273 -0.0622901 0.47508 -0.656427 -0.586006
0.0632124 0.114311 0.0899042 0.602835 -0.142254 0.785082
-0.0718721 0.151516 0.0370221 -0.990226 0.109188 0.0867748
-0.0639504 -0.0360741 0.0547198 -0.971747 -0.165252 0.168521
-0.0345471 0.252697 0.29685 -0.2863 -0.514078 0.808552
0.0682172 0.0475605 -0.045919 0.799042 -0.452882 -0.395513
-0.134568 -0.0235922 -0.106791 0.728765 0.491681 0.476604
-0.115634 -0.0527467 -0.103957 0.727662 0.555366 0.402587
0.0729809 0.139335 -0.0402811 0.630363 0.26894 -0.728226
-0.0460341 0.339045 0.256811 0.507617 0.296331 -0.80902
0.0582679 -0.182661 0.0426751 0.973753 0.217684 0.0664794
-0.000855114 0.348452 0.161419 0.136679 0.86287 0.486594
-0.121965 -0.0949258 -0.08243 0.166573 -0.00349401 0.986023
-0.0783241 0.126914 0.00414414 -0.968796 0.209463 -0.132516
-0.0411951 -0.0529276 0.00330749 -0.445904 -0.295369 -0.844942
0.0146116 -0.365004 0.0646993 -0.749938 0.13362 0.647872
-0.0631816 0.0405055 0.0614431 -0.958703 -0.273926 0.0765077
0.008853 0.357858 -0.0098452 -0.013798 0.734764 -0.678183
0.0410828 0.278023 0.146585 0.932759 0.0433304 0.357887
0.0618255 0.239431 -0.155874 -0.746824 -0.606053 -0.273775
-0.0801481 0.446618 -0.00774981 -0.807462 0.066209 -0.586193
-0.038459 0.252215 -0.0310252 -0.832359 0.0424261 -0.55261
0.0753928 0.0360735 0.0532123 0.874242 -0.324665 0.360963
-0.0490226 0.246064 -0.0119104 -0.914018 0.160942 -0.372382
0.045967 0.417675 -0.289255 -0.352214 0.848803 -0.394307
-0.00950804 0.31179 0.205075 -0.152284 0.759845 0.632017
0.0386708 -0.102765 0.0286481 0.953288 0.12534 -0.274831
-0.0609203 0.43287 0.0517652 -0.497709 0.0297269 0.866835
-0.00100591 -0.461241 0.0886982 0.0965255 0.705304 0.702303
-0.155974 -0.255019 -0.156115 -0.0435334 -0.930815 -0.36289
-0.0148445 0.0898903 0.118546 -0.32205 -0.0879172 0.942632
0.0553735 0.3581 0.049112 0.836706 0.534234 0.120482
-0.0227436 0.283329 0.30288 0.43476 0.172019 0.883965
-0.0335974 0.0504849 0.10727 -0.503522 -0.0678218 0.861317
-0.0557968 0.119497 -0.062471 -0.594657 0.802018 -0.0561297
-0.0625258 0.250768 0.217497 -0.834514 -0.11596 -0.538646
0.0465699 0.219533 -0.079415 0.199074 -0.711425 -0.673976
0.00273261 -0.221252 0.0124597 -0.484148 0.00939833 -0.874936
0.108798 0.295148 -0.125363 0.49327 0.863319 -0.106605
-0.13101 0.00366854 -0.110529 0.890196 -0.421235 0.173528
-0.0737263 0.0353198 -0.0351255 -0.660231 -0.378572 0.648675
-0.0996548 -0.119588 -0.0862891 0.19803 0.473305 0.858351
0.0567002 0.337598 -0.204234 -0.999913 -0.00273784 -0.0128728
-0.219951 0.0484046 -0.0993136 -0.723467 0.138742 0.676274
0.0856436 0.240999 -0.0920175 0.609694 -0.748569 0.260608
0.00538582 0.0108988 0.102326 0.281144 -0.416559 0.864544
-0.0596352 0.105327 0.0763973 -0.867221 -0.0268415 0.497199
0.0124408 0.359788 0.133561 0.0783147 0.932956 0.351368
-0.00655336 0.226166 0.27876 0.332267 -0.765979 0.55034
-0.0283816 0.487863 0.0392984 -0.024609 0.896626 0.442104
0.105301 0.282123 -0.0761589 0.955869 -0.0484432 0.289771
-0.0432 0.068846 -0.113182 0.625404 0.0342213 -0.77955
-0.0445719 0.272716 0.179147 -0.980629 0.0715417 0.182342
-0.0584971 0.119618 -0.0814049 -0.170328 0.979111 -0.111036
-0.041376 0.0132127 -0.0286132 0.0437322 -0.969534 -0.24102
-0.0370646 0.276093 0.215808 -0.549477 0.82322 0.142769
-0.0637544 0.0327872 -0.11077 0.248386 -0.65506 -0.713583
0.067373 -0.266114 0.0788695 0.776887 -0.00315033 0.629633
