ply
format ascii 1.0
comment VCGLIB generated
element vertex 394
property float x
property float y
property float z
property float nx
property float ny
property float nz
element face 0
property list uchar int vertex_indices
end_header
-0.01858004368841648 0.2638441026210785 -0.03457699343562126 -0.4757812470837821 0.6551523447616042 -0.586862513777097
0.08856944739818573 -0.11362351477146149 -0.04374295845627785 0.5837149075216587 0.32357607704953506 -0.7446982134383128
-0.04129914566874504 -0.16416095197200775 -0.059896573424339294 -0.5915880046727076 -0.745327668872959 -0.3074252734239093
-0.07402552664279938 0.16409936547279358 0.13824430108070374 -0.6746126674565271 0.5540689802428513 0.4877553834042593
-0.030265215784311295 0.23738093674182892 -0.046103958040475845 -0.6973711657338169 0.31963598409186433 -0.6414875640857605
0.04496178776025772 0.3903968930244446 0.015692051500082016 0.7006404786059925 0.6814933347533247 0.21135220468582466
-0.08846257627010345 -0.2949087619781494 -0.00540178781375289 0.839497098665941 -0.2580654240863115 0.47817032344408367
0.008985854685306549 -0.010802642442286015 0.04640810191631317 0.4305751287263661 -0.02608036636644224 0.902177849989937
0.08881470561027527 -0.2310457080602646 0.02629396878182888 -0.1295731561153038 -0.12447802426038763 0.9837255809881887
-0.04220373556017876 0.3743695914745331 -0.021012667566537857 -0.5118043660826284 0.3530368112501138 -0.7832121684199694
-0.06823103874921799 -0.22413015365600586 0.005867372266948223 0.8195688393316061 -0.40653188310068994 0.4037805661733251
-0.05290628597140312 0.21256037056446075 0.10134085267782211 0.37187993823306054 0.2893847732273857 0.882021408223128
-0.08716285228729248 -0.2184402197599411 0.01646076887845993 0.03950563410650457 -0.20318391343759182 0.9783432946537878
-0.0717240497469902 0.1763913780450821 0.12902361154556274 -0.3778107527229211 0.6581029714809533 0.6512752982072016
0.011650478467345238 0.2929832935333252 0.02485424466431141 0.24361398940241263 -0.34382504998737 0.9068828806238565
0.09585407376289368 -0.2937634587287903 -0.013251708820462227 0.8101759266466773 -0.5621419231236174 -0.16616686236755837
0.019180450588464737 -0.157591313123703 0.03255700692534447 -0.4267124396285978 -0.23125074892383243 0.874322357593798
0.06591524183750153 -0.04454473406076431 -0.03202856332063675 0.7322793825471234 0.4303510315699604 -0.5277924739166662
-0.04414442181587219 0.15225166082382202 -0.03613809496164322 -0.6968229768899863 -0.015267038655838753 -0.7170806484690956
-0.10248679667711258 -0.40268057584762573 0.005929635372012854 0.5945166167193314 -0.7920286705052373 -0.13871040891838707
-0.08039788156747818 0.21711066365242004 0.05467082932591438 -0.9939571988745238 -0.10715450983935251 0.0238117161623981
0.07819872349500656 -0.0818132683634758 0.03569468483328819 0.27171449433861344 0.4013841270604479 0.8746782357588612
-0.12940481305122375 -0.32651394605636597 -0.025714237242937088 -0.998502424692906 -0.03353060767761116 -0.04322737825913011
-0.06854449212551117 0.13547933101654053 0.03960435837507248 -0.9344320444654959 -0.14879843894319217 0.32356727097174476
-0.11104155331850052 -0.011464310809969902 0.0019117523916065693 -0.9370512680475112 0.32817295223771503 -0.11932072104263342
0.1453150063753128 -0.13752852380275726 0.0212407186627388 0.9481370473110249 0.3053516428936666 -0.08829786916154965
-0.11908832937479019 -0.1597570776939392 0.014809704385697842 -0.717805421711345 0.36897570588642803 -0.5904339971812348
0.09215820580720901 -0.23088644444942474 0.02637573704123497 -0.11941491354158737 -0.1562833995077672 0.980467020078774
0.004239351954311132 -0.01750471070408821 -0.06374180316925049 0.16748478045527476 0.10311604927103346 -0.98046719919566
0.007262611296027899 -0.027984531596302986 -0.06321807950735092 0.18594137042227238 0.04036005557474688 -0.9817315685458479
-0.06502979248762131 0.13506534695625305 0.1161171942949295 0.22035393711121223 -0.7531054346530275 -0.6199002715725027
0.07755298167467117 -0.06411799788475037 -0.030325494706630707 0.6864236364351413 0.37033439209452984 -0.6258394597459737
0.06280290335416794 -0.3560675382614136 -0.02502606064081192 0.9771401446132457 0.030083735177902336 -0.2104568997751114
0.08090691268444061 -0.31766727566719055 -0.005857808515429497 0.8257225390788034 -0.347037404801633 0.44468789968448835
-0.11432643234729767 -0.028695600107312202 0.02140134945511818 -0.9412548348522258 0.21346558633537355 0.2616711281700832
-0.014419874176383018 -0.11213000863790512 -0.0819702073931694 -0.031913976708535186 0.4387973415040204 -0.8980191485595679
0.043271325528621674 0.05391877889633179 -0.010052094236016273 0.9908185248747601 0.0819582611135111 -0.10752438886250006
0.038580141961574554 0.12235413491725922 -0.027365585789084435 0.8333847799888434 -0.16044894196955417 -0.5288912416591882
0.019514041021466255 0.15817634761333466 -0.05468269810080528 0.3379121871169558 -0.2642064945968672 -0.9033328744215341
0.04453445225954056 0.3526242673397064 0.03523276746273041 0.6940404840257911 -0.04403167033026888 0.7185882120805853
-0.10636963695287704 -0.35647156834602356 -0.04841144010424614 0.4080717633038752 0.1372213050669446 -0.9025783896314994
0.04439960792660713 0.31246721744537354 -0.015249243006110191 0.5902014666598198 -0.2987175147438401 -0.7499533819764141
0.08939123153686523 -0.2175275683403015 0.026951249688863754 -0.1834287004100214 -0.06225916548627173 0.9810594824876031
0.04962588846683502 0.31922653317451477 -0.0135115385055542 0.7946613721252309 -0.13671363776395373 -0.5914581007149973
0.1909259706735611 0.12171807885169983 -0.1803903728723526 0.1909557065630017 -0.060373630072231836 0.979740242576024
-0.08220139890909195 -0.25372380018234253 -0.03164231777191162 0.771853352653503 0.08850938190330984 -0.6296097928976656
-0.01390844490379095 0.24809694290161133 0.04224493354558945 0.4096166045000694 0.48509327376075373 0.7725922294910221
0.008789979852735996 0.2705008387565613 -0.023703793063759804 0.6234610456213764 0.4437299017795386 -0.6437391543625578
0.015662936493754387 0.31578853726387024 -0.025996144860982895 0.16380175643420314 -0.2613725770885932 -0.9512378044080972
0.01150282472372055 0.35142406821250916 0.04121624305844307 0.00920553751638407 0.006587494759513076 0.9999359294433958
-0.07289689034223557 -0.2428179532289505 -0.011482540518045425 0.9485588828330318 -0.3128034395105596 0.04888817882591178
-0.05293997377157211 0.1553952693939209 0.1120007187128067 0.8734133269041673 -0.42343153147508694 -0.24053045241477583
-0.057156722992658615 -0.03643755987286568 0.07017005980014801 -0.012791608236883845 0.07801474713441443 0.9968701389791289
0.039863456040620804 -0.1871194988489151 -0.04033588245511055 0.4645936984795443 -0.8116061517175078 -0.35418660311676975
-0.005163757596164942 -0.12751254439353943 -0.08942711353302002 0.0705960541345069 0.41532296093367876 -0.9069305570229288
0.04493628069758415 0.028393056243658066 -0.015057065524160862 0.9922696174479622 0.10537199173623185 -0.06555722421834474
-0.08437323570251465 -0.13939183950424194 0.06072326377034187 -0.19841906292448985 -0.17647922332325985 0.9640980029039508
0.043838635087013245 0.12797868251800537 -0.019247254356741905 0.9016242133146283 -0.3390092786163475 -0.26860098096768303
-0.007542408537119627 -0.19395290315151215 -0.023986756801605225 -0.3674317556812895 -0.9275995000020931 0.06747645895297139
-0.05420730635523796 0.17662930488586426 -0.027114883065223694 -0.7240057599783993 -0.09349877782401023 -0.6834278587118885
-0.07029091566801071 -0.15900465846061707 -0.05003597214818001 -0.3544983964677108 -0.39907194804438934 -0.8456195759239955
-0.10449922829866409 -0.14904464781284332 -0.030862528830766678 -0.9628756466581275 0.018815641714932718 -0.26928880537361405
0.05408601835370064 -0.09092934429645538 0.046286553144454956 0.3102265406238896 0.2481614885419702 0.917701132775354
-0.04961155727505684 0.382027804851532 -0.014743255451321602 -0.7794426592585705 0.3244897775870063 -0.5358876049783792
-0.09562771022319794 -0.10777359455823898 -0.04300028085708618 -0.7362852992761815 -0.09029488348883193 -0.6706197074986109
-0.12246669083833694 -0.39747005701065063 -0.05641316622495651 -0.497811182412504 0.24487155278657083 -0.8319987676078362
0.04677267000079155 -0.0550009161233902 -0.050600189715623856 0.5041406960595987 0.1027443854897202 -0.8574880464629716
-0.052548911422491074 0.2387625277042389 0.0855962485074997 0.38960579389981437 0.5709662329302423 0.7226374514326973
-0.05190669000148773 -0.004749949090182781 0.06809431314468384 -0.05724588955714944 0.02600287704649894 0.9980214218713521
0.033643003553152084 0.030782505869865417 -0.039596185088157654 0.6050053961168803 0.2116004483334753 -0.7675895523875564
-0.008959087543189526 0.23206445574760437 -0.06695559620857239 -0.5767408815815009 0.2216181719800854 -0.7862921475894302
-0.09966323524713516 -0.1920095980167389 0.037255000323057175 -0.11369229507941293 -0.8494537889521294 0.5152691747761038
0.11753901839256287 -0.09470781683921814 -0.0033139486331492662 0.7838868462797948 0.49416640149412216 -0.37592682780544906
0.09053892642259598 -0.41858354210853577 0.01877177134156227 0.3295411970133381 0.9211716698924778 0.20699119319072543
-0.08075353503227234 0.12668125331401825 0.12574222683906555 -0.40034817593755556 -0.77655566085271 -0.48650040454359655
0.0013432111591100693 0.1563240885734558 -0.05801650136709213 0.10470775593615328 -0.27594402707815036 -0.955453389635888
-0.04883765056729317 -0.01626572757959366 -0.057538796216249466 -0.29120612285066744 0.19828261017966817 -0.9358862113070263
-0.06709085404872894 0.03514707833528519 -0.022602899000048637 -0.5722802709121535 0.49557040331157726 -0.6533798794624096
0.04608289897441864 -0.05996635928750038 0.03682747110724449 0.3772792085440031 0.4597588489156006 0.8039167865172444
-0.07365275919437408 -0.041228294372558594 -0.05212438479065895 -0.45486558160108864 0.13885205415858037 -0.8796689205210368
-0.07711679488420486 0.07346714287996292 0.03569803759455681 -0.9184540834858812 0.29288354989076326 0.2658219756368815
0.06530594080686569 0.22801470756530762 -0.08036930114030838 0.8989588764249717 0.43359915172324404 0.06216682492805677
0.11061984300613403 0.17632606625556946 -0.16394120454788208 0.5122018110838741 0.8467207724800881 -0.14392094417812182
-0.06818491220474243 0.16875895857810974 0.08183755725622177 -0.18857965778271435 -0.35847392364730174 -0.9142943501605284
-0.05092176795005798 0.19962197542190552 0.10449554771184921 0.6662575189231372 0.17506117748259373 0.7248824060610061
0.014506409876048565 -0.08012072741985321 0.05267578735947609 0.17956610562583394 0.24028918461473187 0.953948175462147
0.06740424782037735 -0.07007964700460434 0.03479935601353645 0.3506138076088361 0.45881090865139457 0.8164327945498734
-0.03398237004876137 0.2273411601781845 0.07544263452291489 0.6808385257085865 0.3034799270840363 0.6666024570671988
-0.04728609696030617 0.14800673723220825 -0.03483299911022186 -0.7198495700781908 -0.004583168448469698 -0.6941149696017344
-0.03686035796999931 0.20667175948619843 0.08141147345304489 0.7335581202734943 -0.033571353494253484 0.6787970598090284
-0.10751700401306152 -0.18203985691070557 0.04109612852334976 -0.3285170495384256 -0.4608799541253246 0.8244187140331096
-0.06207782030105591 -0.16549137234687805 0.04225163534283638 0.3985031032353927 -0.4905786912951871 0.7749373035019437
0.0906691923737526 -0.07865522056818008 -0.025844262912869453 0.6712138116066643 0.32183785689999284 -0.6677517599935422
-0.07084754854440689 -0.23643739521503448 -0.010100753977894783 0.9494737857541707 -0.31104556994442123 0.04183519551278624
0.08264334499835968 -0.3134036064147949 -0.02059829980134964 0.8740199409069446 -0.47218528115045805 -0.1145870985839335
-0.02147156000137329 0.07520296424627304 0.06536951661109924 0.059970219489624194 0.008648781760912728 0.9981626978345857
-0.05311301723122597 0.15247942507266998 0.11425492912530899 0.8580310749185066 -0.4765767941807942 -0.19146078899489843
-0.03491458669304848 -0.16182437539100647 -0.0935419350862503 -0.620593004898304 -0.1780080816900314 -0.7636605562187486
0.21143661439418793 0.06292944401502609 -0.18360275030136108 0.2080163072222633 -0.8815610041465355 0.42376811099676354
0.004899239633232355 0.11218871921300888 0.17358849942684174 0.49807022767028175 -0.023579190810058433 -0.8668160531907658
0.010828433558344841 0.35176849365234375 -0.03415044769644737 0.31176429563118047 -0.058369640809652956 -0.948364913417481
-0.061790067702531815 0.14794395864009857 -0.012404178269207478 -0.8432994676626038 -0.09393959884755188 -0.5291704447607879
0.022507503628730774 0.3822959363460541 -0.02406815066933632 0.3851634523443027 0.4567514101961523 -0.8018898080547253
0.03524230420589447 -0.0064313472248613834 0.02294430322945118 0.8300032984522716 -0.009056191727517341 0.5576849558216034
-0.1182916983962059 -0.06924651563167572 0.015742657706141472 -0.9335949747195149 -0.19771045714233398 0.2988494576120857
-0.10455718636512756 0.00262915319763124 0.022421173751354218 -0.9513760056658405 0.2471718567120337 0.18381993660328738
0.0040935371071100235 0.30603256821632385 0.03284261375665665 -0.050851227912649156 -0.4144906042153396 0.9086317690005004
0.03290697932243347 0.22314666211605072 -0.09671525657176971 -0.49538907585761877 0.27032950906897535 -0.8255371706031542
-0.05232667177915573 0.16543729603290558 0.1022876501083374 0.8806205596070741 -0.31130079352231177 -0.3572103665204899
-0.013053054921329021 -0.021156063303351402 -0.06608502566814423 0.03862811606349902 0.11542512170804227 -0.9925648139683718
0.07988539338111877 -0.1301727145910263 -0.05338044464588165 0.29578786737377416 -0.09137870168926714 -0.9508730043449855
-0.09216255694627762 0.02741922251880169 0.04017813131213188 -0.8469879383354548 0.27957646796391994 0.45215974044033946
-0.11735732853412628 -0.07050523161888123 0.01649322733283043 -0.9531733138382317 -0.17075404219114837 0.24960707294070733
0.09735872596502304 -0.12237027287483215 0.05376015976071358 0.12951028571342765 0.381659353706052 0.9151848029895957
0.08066914975643158 0.1811358779668808 -0.10439106076955795 0.7852776055371324 -0.08469430464410178 0.6133236967562233
-0.03537604212760925 0.17671890556812286 -0.047609973698854446 -0.6793130384011368 -0.14544459656900371 -0.7192910851575289
-0.12579794228076935 -0.277704656124115 -0.0027551581151783466 -0.8512647711194051 -0.0643976357678178 0.5207698473976219
0.014992250129580498 0.19765408337116241 0.04866496101021767 0.6907581663382617 0.5102527337363671 0.512342954817929
-0.10650235414505005 -0.41697973012924194 0.032861366868019104 0.218396266390718 -0.9758594168000954 0.0012122166359311195
0.08343756943941116 0.16952189803123474 -0.16594214737415314 -0.5121835808750338 0.3637570981764922 -0.7780416139309296
-0.03057703748345375 0.1287301927804947 -0.04456104710698128 -0.4672079417321122 -0.08416255535172447 -0.8801326056107177
0.09936977922916412 -0.16688600182533264 -0.028384583070874214 0.02163214380773817 -0.729871857599535 -0.6832416277119577
-0.08400313556194305 -0.07085458934307098 0.06336075067520142 -0.420637194221922 -0.015787848756888108 0.9070915580407188
-0.07307573407888412 0.11846965551376343 0.01619540899991989 -0.9990136817644252 -0.03261214782032235 0.030134887788628825
-0.11888331919908524 -0.16330423951148987 0.04376843199133873 -0.3896592147434628 -0.09842871966377995 0.9156841614393344
-0.06409841030836105 0.2592310309410095 0.022554300725460052 -0.6829216713332689 0.6903467044299036 -0.23882926643555666
0.03461109474301338 0.06458491086959839 -0.02903616987168789 0.8507708950943735 0.14725716203251288 -0.5044841050919728
0.05635261535644531 -0.27543905377388 0.0025916474405676126 -0.8607090264852666 -0.06922302297995198 0.5043690561645329
0.061681732535362244 0.16236428916454315 -0.12116046994924545 -0.6498837340431953 -0.7574503876785589 -0.06261024222660648
0.11406001448631287 -0.213139146566391 -0.00601921183988452 0.5644166092619063 0.29202772874491817 -0.772109899453036
-0.005611341446638107 -0.19185353815555573 -0.03858310729265213 -0.2949352299672258 -0.9185808000589548 -0.2631017367620936
0.061157334595918655 0.1600695103406906 -0.007790146395564079 0.9653455409870969 -0.24112594605582008 -0.09983118067525275
0.08874979615211487 -0.18531568348407745 0.039013031870126724 -0.15470199831021045 -0.6510433842936632 0.743108204426705
0.024181850254535675 -0.16133378446102142 0.03489198908209801 -0.3953452945759106 -0.2802043475924476 0.8747500338079316
-0.03600456565618515 0.205109640955925 0.08054370433092117 0.6818414740472052 -0.10053006558341089 0.7245591143467381
0.06179938465356827 0.09610855579376221 0.20592869818210602 -0.05987691030125575 -0.8400092807493948 0.5392579752471535
0.03969147428870201 -0.016384515911340714 0.02191699482500553 0.7464178382427725 0.253146285847917 0.6154489164133697
0.21714790165424347 0.07748407870531082 -0.18730200827121735 0.7986324649216187 -0.02231536214784881 0.6014051966731166
-0.035205814987421036 0.2587173879146576 -0.020127546042203903 -0.7480678769639016 0.4758862469378709 -0.46252214155660576
-0.011941562406718731 0.15013764798641205 -0.053394436836242676 -0.26788020300867854 -0.1530331153600906 -0.951220827378803
0.024168796837329865 0.2917415201663971 0.024671172723174095 0.1172159443848684 -0.7389520916794484 0.6634834049051502
-0.06911658495664597 0.09470640867948532 0.03670072928071022 -0.9036952775126372 0.18221685613438737 0.3874685312923587
-0.06311380863189697 0.14002105593681335 0.11208673566579819 0.4659790665934325 -0.6318514592977222 -0.6193764952595896
0.07252544164657593 0.08504854142665863 0.21603475511074066 0.12037113978921858 -0.6674107361181406 0.7348970662753296
-0.05458351969718933 0.2448989450931549 0.07933248579502106 0.19134579957915474 0.7700144254389266 0.6086580070937816
0.028811214491724968 0.11395625025033951 0.18326525390148163 0.30882183703650323 -0.3050179272577614 -0.9008846413502556
0.025486690923571587 0.3348999321460724 -0.02655414678156376 0.3777654432775446 -0.10859131065750967 -0.9195113904215677
-0.008731991983950138 0.39858323335647583 0.015246755443513393 -0.2782917254260841 0.9203714352585968 0.27471828610306204
0.021471703425049782 -0.19356809556484222 -0.020335640758275986 0.27414947069538964 -0.9344134717968283 0.22740609367832623
0.005551401060074568 0.3021152913570404 0.030866865068674088 0.026438599680872518 -0.40857267848565226 0.9123427902066056
0.01638076826930046 0.007365144323557615 -0.05574381351470947 0.3214566708424582 0.19260251232913847 -0.927129915931628
0.055158939212560654 0.231605663895607 -0.09806770086288452 0.4239752030925721 0.756058908497007 -0.49861804424321293
0.09247872978448868 0.18443772196769714 -0.1343083530664444 0.7879662538880424 0.6112364025929761 0.07415688018547302
-0.08412031829357147 -0.14118488132953644 0.06065228208899498 -0.1984190629244899 -0.17647922332325985 0.9640980029039508
0.07624093443155289 0.18397904932498932 -0.1510140597820282 -0.24306495225476255 0.6841857481083735 -0.6876112935887363
0.034612514078617096 0.11456461250782013 -0.031180281192064285 0.7273752462086757 -0.17744412358585504 -0.6629018284842155
0.21263018250465393 0.10144641250371933 -0.18664973974227905 0.7536740020319594 0.3620976791919376 0.5485077660206306
0.022229142487049103 0.10694500058889389 0.047269392758607864 0.5948627042516775 -0.011389549882161749 0.803746627516323
-0.03468812257051468 0.09460175037384033 -0.040416572242975235 -0.35482009184388125 -0.08579339055665408 -0.9309899014278797
0.07564190030097961 -0.13964952528476715 -0.047652143985033035 0.12467409676447505 -0.6566416463384421 -0.7438266719403807
-0.09457550197839737 -0.3475883901119232 -0.019623100757598877 0.9602741964897499 -0.09529143601502996 0.26228421564813786
-0.10823002457618713 -0.23678317666053772 -0.033107880502939224 -0.3264030874996767 0.46624646637451367 -0.8222379564724301
0.03113999217748642 0.33482250571250916 0.040876276791095734 0.2871510754669158 0.03983572194427863 0.9570566206423589
-0.006561738904565573 0.1876017153263092 0.07578006386756897 0.24166549783797922 0.33102934974266146 0.9121498543351704
0.031347643584012985 0.045377347618341446 0.03348211199045181 0.8226128122209159 0.021256476141489126 0.5682044732242457
0.06835898756980896 -0.398130863904953 -0.028191084042191505 0.45639890500121927 0.8010471203320908 0.3873287370197995
0.024100225418806076 -0.37365221977233887 -0.03292933106422424 -0.6456709921771651 -0.5335310136473936 -0.5463090950527365
-0.013988029211759567 -0.187745600938797 -0.04362669587135315 -0.4490076592008725 -0.8820111528756183 -0.14299807055333252
0.0298706516623497 0.12329915910959244 0.19023612141609192 -0.8874520998297064 0.42030141209764227 0.18914410775007762
0.04055820778012276 -0.03582894057035446 0.029191169887781143 0.5665604137067641 0.3108971392865059 0.7631200864895953
-0.056120365858078 -0.20502881705760956 -0.006467132829129696 0.8029274340193607 -0.33601432115572627 -0.49234328641441
0.12502358853816986 -0.23103949427604675 0.008494824171066284 0.9983595212205378 -0.0508207168150353 -0.02637273460800809
-0.10989528149366379 -0.19087998569011688 0.025403045117855072 -0.35891172520700354 -0.9149362919399014 0.18459131940640117
-0.044784121215343475 -0.17117096483707428 0.03383846953511238 0.44831852419681845 -0.6567018623211538 0.6064265535791743
-0.05162539705634117 0.1545005589723587 0.11509918421506882 0.8956294401306473 -0.4082675242912154 -0.1765376293609527
0.1074267029762268 -0.42484402656555176 0.006384140811860561 0.25933414284527206 0.9419537368986681 0.2132345185408377
-0.043663494288921356 0.139438197016716 0.17759443819522858 -0.17679997640805967 0.6833627249652323 0.7083481873134156
0.004066453315317631 0.36149924993515015 -0.03642795979976654 0.21658064457820508 0.10716053504309563 -0.9703656239394338
0.018744254484772682 -0.19736090302467346 -0.027245914563536644 0.1433906454081527 -0.9896559679732299 -0.004493090740564424
0.06574443727731705 0.08864632993936539 0.1974734365940094 -0.27697055824259853 -0.9282315717001449 -0.24834141653349373
0.017629487439990044 0.03820779174566269 -0.046241868287324905 0.3665410797515931 0.2208920984590991 -0.9037999323372801
-0.07908063381910324 0.18295493721961975 0.11093734204769135 -0.7986354090407155 0.3983553302567887 0.4511036624572825
-0.029957272112369537 -0.06822922825813293 0.06572791934013367 0.2820566163358309 -0.009543707759308434 0.9593502920327834
-0.08962157368659973 -0.11003026366233826 -0.05002453923225403 -0.7009073992835677 -0.07420585406826956 -0.7093816383665031
-0.07226644456386566 -0.05535653606057167 0.0681925043463707 -0.2438815862859067 -0.0015461467241539592 0.969803784948779
-0.03449908271431923 0.28290244936943054 0.0003020236035808921 -0.8806381726808681 0.3315395506997465 -0.3384640824948961
-0.007707495242357254 -0.18597511947155 -0.06507667154073715 -0.3120328105043929 -0.9308101425799038 -0.1903365536073109
-0.0003711580066010356 0.2661013901233673 -0.042311087250709534 -0.2544754359733171 0.8076580236247124 -0.5319123700016892
-0.041232746094465256 0.14481396973133087 0.16964131593704224 0.1983657767241485 0.897349543028048 0.39422685886679365
-0.07414693385362625 0.08198955655097961 0.033155184239149094 -0.9266845904645714 0.29732029553962036 0.22990500572136813
0.1445404291152954 0.1260659396648407 -0.1780698448419571 -0.5847876605576334 -0.8060377684865704 -0.09124970045276898
0.031217006966471672 0.186127707362175 0.03820759803056717 0.7189553373324492 0.4759812121994127 0.5065028218621906
0.07090453058481216 -0.21740710735321045 0.018990671262145042 -0.7112243381536544 -0.012983466082344783 0.7028451966303711
-0.0882825255393982 -0.2911028265953064 -0.0034688252490013838 0.8011644337217076 -0.26428650254246067 0.53692475703142
0.12834686040878296 0.12963639199733734 -0.1630678027868271 0.023560308586603306 -0.7857436118912168 0.6181034607826176
-0.023494534194469452 -0.10905568301677704 -0.07992903888225555 -0.09442941490253029 0.3875231163635581 -0.9170108613779022
0.0688767060637474 -0.3212929964065552 -0.00045201045577414334 0.08017394852217564 -0.27047379011259703 0.9593831699798003
0.01520620472729206 -0.04597743600606918 0.04336360841989517 0.38728416389134196 0.1970415705035139 0.9006584235394087
-0.03168611600995064 0.27655279636383057 -0.008311477489769459 -0.7896128619119205 0.3349142305679338 -0.5141439355534162
-0.0840509906411171 0.15377812087535858 0.13526466488838196 -0.7236906220011675 0.5053063438067875 0.4700397669731574
-0.04416995495557785 0.25365352630615234 0.05777349695563316 0.3333703828814584 0.8118514198669052 0.47933439254612215
-0.04831148684024811 0.012650419026613235 -0.046579230576753616 -0.43099530736171554 0.3425361738567683 -0.8348125625742261
0.07924521714448929 -0.19308266043663025 0.028806636109948158 -0.25703447881638763 -0.49622836175820556 0.829271179823799
0.02300691418349743 0.3947236239910126 0.02280483767390251 0.17274564402639622 0.8424995717837407 0.5102483846266632
0.029539156705141068 0.0863245502114296 -0.03018558770418167 0.7203145367031324 0.012571635289935696 -0.6935336489315344
0.04077697545289993 0.24800273776054382 -0.08268424868583679 0.13277720922904412 0.828635547091114 -0.5438137022973556
-0.0843399167060852 0.16444580256938934 0.12309756875038147 -0.8139851457464128 0.44656723767035567 0.37149143293440745
0.01547455694526434 0.3768952786922455 0.041134294122457504 0.08225020629481535 0.3497035998001321 0.9332428922050731
-0.06817178428173065 -0.20040272176265717 -0.017553208395838737 0.5172291661549604 0.12400946221670894 -0.8468149992527098
-0.0757226049900055 -0.19235077500343323 0.01835811883211136 0.3008514068435233 -0.47186898661645105 0.8287509218515756
-0.027832571417093277 -0.03301244229078293 0.06498579680919647 0.336768613857501 0.038541118582457214 0.9407983221173974
0.003985920455306768 0.3594376742839813 -0.03654107078909874 0.15542671002615557 -0.021606579780390375 -0.9876111043931407
0.09884919971227646 -0.0874033272266388 -0.02037603035569191 0.705429076981771 0.19594634058611107 -0.6811569928875122
-0.06697875261306763 0.2094515860080719 0.10541551560163498 -0.2687170630089311 0.48937582904368154 0.8296399447927177
0.027172338217496872 0.16504687070846558 0.051104553043842316 0.8161961037384179 -0.061793413476630955 0.5744610468022457
0.10136332362890244 -0.410599023103714 -0.008470446802675724 0.15866549705697688 0.9285139219784548 0.3356890774747523
-0.01616506092250347 0.0786934494972229 -0.04420458525419235 -0.13521139005660107 0.04247684005861069 -0.9899058531282645
-0.020166432484984398 -0.040108900517225266 -0.06654999405145645 -0.023819063688925373 -0.013644862324840143 -0.9996231639658613
-0.022358858957886696 0.07465779036283493 0.06549675762653351 0.0599702194896242 0.0086487817609127 0.9981626978345857
0.09827297925949097 -0.4179438054561615 -0.009678512811660767 0.16309799112989007 0.9279555981922619 0.33510812146684194
0.03884883597493172 0.13720591366291046 0.027699632570147514 0.8190138009519506 -0.02724921470366383 0.5731264032901225
0.08614044636487961 -0.30538278818130493 -0.0016215796349570155 0.6784796827037306 -0.510575836901455 0.5281833345824383
-0.05466729775071144 0.10668283700942993 0.15185916423797607 -0.19682952469435203 -0.9386060624096367 -0.2833316039845759
-0.06570180505514145 -0.02705906331539154 0.06843693554401398 -0.16698921696977934 0.11445181578857236 0.9792933080944233
0.18564273416996002 0.10492771118879318 -0.18142057955265045 -0.06028714369076754 -0.12943741201654174 0.989753209985231
0.21820157766342163 0.08808489888906479 -0.19403980672359467 0.9900052307634069 0.1062003900657998 0.09279612174528393
0.09260695427656174 -0.20417073369026184 -0.007760653737932444 -0.18326929130927402 0.34939998025514024 -0.918875410847795
-0.0315842442214489 0.007930655032396317 0.0673825666308403 0.1791532514104623 0.008734961726817501 0.9837824012212715
-0.03968102112412453 0.14731037616729736 0.0663333460688591 -0.322634155517513 -0.1338632453777598 0.9370100496955382
0.10692725330591202 -0.09277740865945816 0.02946171909570694 0.5182303023258363 0.5975226586624784 0.6118856315817488
0.031648896634578705 0.05529220402240753 0.033616065979003906 0.8443393741350173 0.009734565842881295 0.5357203183687715
-0.08668912947177887 0.14227540791034698 0.13509581983089447 -0.9981854234718326 -0.01899138863004933 0.05714181941678649
0.09412113577127457 -0.13787220418453217 -0.04709985852241516 0.4909168486218563 -0.11258601166112776 -0.86390105782863
0.21824179589748383 0.06473954021930695 -0.18558241426944733 0.3539704690678215 -0.8400209492770992 0.4111808748026926
-0.1070832908153534 -0.152071014046669 0.046553730964660645 -0.4039935982303843 -0.121173876042143 0.9067006475975354
-0.00568954786285758 0.39738351106643677 0.01998165436089039 -0.16184226513156694 0.9263198567161288 0.3402037687482226
0.05387546494603157 -0.3528047800064087 -0.0024029414635151625 -0.14996463031096852 -0.018993288475116624 -0.9885089097466929
-0.022208765149116516 0.3104309141635895 0.026582082733511925 -0.4325834354238765 -0.08834013780890461 0.897255588697435
-0.052872855216264725 0.2631915211677551 0.042202576994895935 -0.4022373124301316 0.8533574832136908 0.3316415992184642
-0.08287576586008072 0.031076893210411072 -0.01194247417151928 -0.6389570823389911 0.5326074035453817 -0.5550344139037603
-0.05215403065085411 0.2358555793762207 0.08772958815097809 0.38960579389981415 0.5709662329302424 0.7226374514326972
0.06927279382944107 0.09303802251815796 0.183421790599823 -0.05086447258444374 -0.7164044401883918 -0.6958286308474693
0.040596552193164825 0.06258726865053177 0.013595654629170895 0.9750596102182826 0.029906042568543463 0.2199190422379547
0.09593924134969711 -0.41236570477485657 -0.02102758176624775 -0.6929931102186345 -0.08513967378699297 0.7158992842131832
0.10291777551174164 -0.0731285810470581 -0.0030706266406923532 0.8056966217170162 0.5685861353279773 -0.1660203616023728
-0.020311616361141205 0.12315704673528671 0.06565243005752563 0.043431885786082015 -0.20657984361583298 0.9774653137112963
0.013118911534547806 0.011911836452782154 -0.05637437105178833 0.2813856852053174 0.2276332479457752 -0.9322044843226143
-0.08774938434362411 -0.24971020221710205 -0.03490685299038887 0.6022727895197418 0.1510034294482724 -0.7838784671739424
0.01648055762052536 0.2614728808403015 -0.02288738451898098 0.7463932480322948 0.618583473682987 -0.24546202430944516
-0.03522241488099098 0.3693373501300812 -0.028847260400652885 -0.5150631211576115 0.2877036244444947 -0.8074259134464788
0.08587668091058731 -0.20438329875469208 0.025927884504199028 -0.20208546104654013 -0.1468325822806133 0.9682983317213835
-0.08023480325937271 0.17123353481292725 0.02757645770907402 -0.9630640884338068 -0.2571405990487819 0.07991416576549244
-0.015942245721817017 0.39556214213371277 0.017311103641986847 -0.40710831267894854 0.8319046031845414 0.3770909080686915
0.03647231310606003 0.127966046333313 0.031506165862083435 0.8310670671005587 0.015877609211862945 0.555945529262167
-0.08172449469566345 0.05462467670440674 0.011177627369761467 -0.9099901503526051 0.2694430943857287 -0.31514813207297704
0.04223093390464783 0.02302021160721779 0.012965528294444084 0.9617039797061224 0.019751411418397372 0.27337764569252404
0.04366065189242363 0.15190161764621735 0.024505147710442543 0.7840181346528233 -0.17983315135157976 0.5941174986570141
-0.03399190306663513 0.1747158169746399 -0.04845426231622696 -0.6777392385591151 -0.15214949625437982 -0.7193886677637127
0.049487944692373276 0.11931260675191879 0.20391063392162323 0.043777654981759534 0.8685343630939395 0.49369178345330306
0.08340205997228622 -0.4169965386390686 0.014218917116522789 0.47851467185123214 0.8024151468722489 0.35658609183911677
-0.00943763181567192 0.3973919451236725 0.018425798043608665 -0.3341608723581504 0.873624839493226 0.3537176150621783
-0.047492772340774536 -0.04975757375359535 -0.061461739242076874 -0.23420477762308284 0.07030036549971043 -0.9696421921250794
-0.08806668967008591 0.04131261631846428 0.014206147752702236 -0.835381745819341 0.45777185064188847 -0.30427334998604577
0.052072420716285706 0.3455747961997986 4.505205652094446e-05 0.9870637511393845 0.07046786451738186 -0.14401191359400609
-0.08456916362047195 -0.17005951702594757 0.04992632195353508 0.025558683037433305 -0.3950218465798116 0.9183161190167947
-0.08206859976053238 -0.2904922068119049 -0.03304712101817131 0.9378264197976105 -0.07313016926219872 -0.33931340184743414
0.1493958979845047 0.1367987096309662 -0.1951473355293274 -0.3564463137901212 -0.08440134804196979 -0.9304958021582541
0.009141119197010994 -0.052901774644851685 -0.06387445330619812 0.16659082639347533 0.07058619977255874 -0.9834963573716007
-0.04054057598114014 0.34139060974121094 -0.02226160280406475 -0.7456831333214057 -0.3093644994049709 -0.5901273347235175
0.05854488164186478 -0.2603957951068878 0.004802695009857416 -0.9190295621244464 0.1015493697393028 0.3808836954332633
-0.03690045326948166 0.1129332184791565 0.15074016153812408 0.40662890380855876 -0.43025210763664107 -0.8059379991424144
-0.0848890021443367 0.13364551961421967 0.12657004594802856 -0.925470706132797 -0.34623718198579134 -0.15370031197300857
0.039854034781455994 0.23327991366386414 -0.02089826576411724 0.750024807679824 0.5070698832125647 0.4246680131627988
-0.08487768471240997 -0.22095897793769836 -0.026217065751552582 0.307966820872717 0.20808731261424995 -0.9283620562962122
-0.09286796301603317 0.02017395757138729 -0.009889369830489159 -0.7387053422011942 0.4506210317380103 -0.5012535318167722
0.03748049587011337 0.12347332388162613 -0.029924962669610977 0.7402038820814593 -0.18367216239501366 -0.6468096703920537
0.05585430935025215 0.36157241463661194 0.011312402784824371 0.9959074874171424 -0.04610252619911908 0.07773566481695422
0.18480028212070465 0.09690285474061966 -0.18603143095970154 -0.7023945386653078 -0.6046673957939214 0.375525302099535
0.013940726406872272 -0.07907561212778091 -0.06698836386203766 0.2644770503007272 0.20568853700846892 -0.9422017382745281
-0.06832868605852127 0.19044212996959686 -0.012866025790572166 -0.7472027966108097 0.067042354810534 -0.6612059462818249
0.20049135386943817 0.11715521663427353 -0.1846112608909607 0.5980013503926106 0.48895481163240967 0.6350728911787441
0.11198850721120834 0.16941213607788086 -0.17256462574005127 0.18684188574155847 0.8250489753452582 -0.5332769430739321
-0.10791096091270447 -0.020988449454307556 -0.02142499014735222 -0.7918696209665815 0.2873850153960906 -0.5388435360250982
0.04959834739565849 -0.18665194511413574 0.020372780039906502 -0.23482334351253686 -0.8961805459354029 0.37645507889855384
-0.0831562802195549 -0.11130893975496292 -0.05519632622599602 -0.621636428731363 0.014611559727237015 -0.7831696194289297
0.04860992357134819 0.13305650651454926 0.005229047033935785 0.947566957328575 -0.21930166631283637 0.23242986153134468
-0.06155472993850708 0.11987725645303726 -0.018145527690649033 -0.792044832987587 0.03705130393355006 -0.6093374954936625
0.004457629751414061 -0.18595239520072937 -0.059196922928094864 0.14880758650218698 -0.9579963941372355 -0.24515140427794593
0.011203842237591743 0.26408541202545166 -0.049207478761672974 -0.018291521629569363 0.8936189628720517 -0.4484535309616302
-0.04802927374839783 0.16830678284168243 0.11956512928009033 0.9848222396708404 0.1165772650254499 0.1285880924848649
0.08741068094968796 -0.4177372455596924 0.01853572390973568 0.41727605939260676 0.8880269240243356 0.1931032689149897
-0.027785008773207664 0.2725427448749542 -0.017493832856416702 -0.7494772463807289 0.3986650057902562 -0.5285357795985199
0.0866483747959137 -0.14655801653862 -0.04017883166670799 0.13080102636765903 -0.6433999898978101 -0.7542728581227519
-0.1227106973528862 -0.06818344444036484 0.005053268745541573 -0.9916683952856892 -0.1031100791469354 0.07721467069034893
0.044921260327100754 0.025035716593265533 -0.019636644050478935 0.9758611074162565 0.12995833735333262 -0.1755161804070347
0.0175803042948246 0.24014852941036224 0.01124177873134613 0.7682067710065764 0.37908458740490913 0.5159004095479083
0.07021823525428772 -0.24038977921009064 -0.017329126596450806 -0.6434487378387177 0.4283971337014427 -0.6343891688941019
-0.07436009496450424 -0.19443753361701965 -0.016263823956251144 0.47191786958589144 -0.09694122246339874 -0.8762967098835961
0.03309033066034317 0.11405424028635025 0.20999960601329803 -0.12864443079525273 -0.009036859181567545 0.9916496082798086
-0.047237329185009 0.2220706045627594 0.0931624248623848 0.6428251075131061 0.23589898478141488 0.7287849820968194
0.007691354025155306 0.0856219232082367 0.056363966315984726 0.5054057899052139 -0.061377122402245875 0.8606961347513457
-0.11049266904592514 -0.03905312716960907 0.03674248605966568 -0.8572556149889226 0.19003949036136025 0.47853714868666014
0.009879357181489468 0.10294178873300552 -0.044352754950523376 0.2680453859196891 -0.17318393974163965 -0.9477125060390039
-0.04226054251194 0.08937273919582367 -0.035959914326667786 -0.5210494100961236 -0.07572534209771 -0.8501606817553177
-0.10010690987110138 -0.12968721985816956 0.055047657340765 -0.4960818841187626 -0.0583651251911929 0.8663118817207779
0.07709310203790665 0.09688475728034973 0.21421681344509125 0.4036183131634239 -0.18687633490695518 0.8956391531922083
0.1374407708644867 -0.12417405098676682 0.027906181290745735 0.8441994259963641 0.469161625252707 0.25925797680620716
0.10801385343074799 0.17676222324371338 -0.15551741421222687 0.5411135976847363 0.8371511478902984 -0.07983752242296417
0.060591552406549454 -0.30676648020744324 0.0022211463656276464 -0.5541695481420935 -0.16929250507983595 0.8150068463735636
0.07586385309696198 -0.08944818377494812 -0.043212953954935074 0.5885161046326739 0.3252289530847979 -0.7401857352471407
0.10083696246147156 -0.22722284495830536 -0.01821747235953808 0.22456642803748317 0.3587805421670316 -0.9060057626532056
0.12512627243995667 -0.10213956236839294 0.004762220196425915 0.8050336314016969 0.5785364928411174 -0.13121119907727563
0.04357874020934105 0.3847871720790863 -0.007858691737055779 0.6158235600760119 0.4720708965236917 -0.6308014041761675
-0.08565429598093033 -0.4217289984226227 -0.013280261307954788 0.413163269315021 -0.8990119417058967 -0.1451676326152523
-0.10120079666376114 -0.16669276356697083 -0.03827415034174919 -0.7675243460643894 -0.13055153953493065 -0.6275847940505657
0.04341382533311844 0.04804601892828941 -0.01569763757288456 0.9621907931527328 0.15509443374313092 -0.22390755725078276
0.03837171569466591 0.39271166920661926 0.020758677273988724 0.36842408722018655 0.7892021747410037 0.49134877565741697
-0.07511355727910995 0.15807726979255676 0.03309072181582451 -0.9358800173768904 -0.26587396016930676 0.2311701329724957
-0.009319532662630081 0.19882193207740784 -0.06684279441833496 -0.46579703889755497 -0.13740984021235428 -0.8741576827821654
-0.07826355844736099 0.14119401574134827 0.10872190445661545 -0.23761301024603795 -0.7060811915365509 -0.667075264359383
0.03954264521598816 0.07357937842607498 0.015727609395980835 0.9855496779321582 -0.043150222595618216 0.16379832300047484
0.05480893328785896 -0.2909654676914215 -0.0011620622826740146 -0.878866638854246 -0.050521046611187115 0.47438492277722166
-0.07544577121734619 -0.0804324597120285 -0.0559874027967453 -0.3881722923320173 0.11302458977343334 -0.9146298232466806
-0.08191560208797455 0.215177521109581 0.019591407850384712 -0.9621613140095111 0.18661347253303023 -0.1985472681571193
-0.11248330771923065 -0.06877285242080688 0.04097096621990204 -0.9080645918227273 0.03916740074437832 0.4169947383322159
0.10250511765480042 -0.41503408551216125 0.007296329364180565 0.25507679073602063 0.9365556858252861 0.24041480440301563
-0.09687163680791855 -0.24803076684474945 0.01384054310619831 0.2922749589250967 -0.11154540709070455 0.9498068069572371
0.04203769937157631 0.17969565093517303 -0.11339779198169708 -0.8323706506974567 -0.41393828554049444 -0.3685297757594201
-0.12418206036090851 -0.40863165259361267 -0.028241869062185287 -0.929830161817283 -0.22268297800693382 0.29296443722883675
0.07565546035766602 -0.38420596718788147 -0.0021687669213861227 0.7026199871763247 0.5715255818280528 0.4238910979679182
0.007722401060163975 -0.16862374544143677 -0.09481023997068405 0.24568171064655514 -0.40441325040760584 -0.8809599423064237
-0.01803380437195301 -0.025415003299713135 -0.06673680245876312 -0.04577456401033222 0.08724888952551686 -0.9951343228761774
-0.1101987436413765 -0.024646436795592308 -0.018793389201164246 -0.8207845433016157 0.23437835182392086 -0.5209409963455174
0.06165582686662674 -0.35850802063941956 -0.003478866769000888 -0.6824195544737091 -0.1297080641892666 -0.7193603893433234
0.0736454650759697 0.20850874483585358 -0.09802713245153427 0.8940070769243258 0.4463422974119237 0.03911393549962206
-0.09001252055168152 -0.2276369333267212 0.015317785553634167 0.06254680299856259 -0.0707694164542483 0.9955298022306437
0.012564457952976227 0.044232022017240524 -0.04708486422896385 0.3247850362535647 0.22481194508521835 -0.9186807223256465
0.08318991214036942 -0.16076971590518951 -0.021931473165750504 -0.15425366641666122 -0.7043831548430455 -0.6928565346234209
-0.021772554144263268 -0.18309669196605682 -0.03140927106142044 -0.3855188777408405 -0.8779075127430914 -0.28399576400834176
0.036364078521728516 -0.3549216389656067 -0.009371548891067505 0.622542478053576 -0.14744666440828286 -0.7685703248069002
0.04597465321421623 0.3896740972995758 0.015428740531206131 0.7006404786059925 0.6814933347533246 0.21135220468582458
0.007741615641862154 0.21492701768875122 -0.07883945852518082 -0.5903414067429117 -0.11005421962496804 -0.7996155902854443
0.07070193439722061 0.1593126505613327 -0.15287387371063232 -0.6984078970331338 -0.5026017010232622 -0.5095271724749124
0.04710417985916138 0.01982755772769451 -0.007747420575469732 0.9950495213750316 0.090821427673562 0.04034746939594613
-0.05754956603050232 0.11536844819784164 0.17364570498466492 -0.49052539681602664 -0.4058381817866812 0.7711551110396406
-0.06858108192682266 -0.2284504622220993 -0.00611442094668746 0.9023476200892729 -0.4042552972937532 0.14948721393204328
0.04807129502296448 0.001858719508163631 -0.0065359692089259624 0.9657441891823679 0.2245309150093048 0.13009238742361218
-0.07204423099756241 0.2044091373682022 0.1055586114525795 -0.6751002214925188 0.3984891241522188 0.620843062998331
-0.07376667112112045 -0.21424467861652374 -0.0220528244972229 0.391033822711413 -0.05244132670441326 -0.9188810895590247
0.04436863213777542 0.18203230202198029 0.024730104953050613 0.7667274050615328 0.33774857285636145 0.5459441252189635
0.04928622394800186 -0.06539753079414368 -0.051270145922899246 0.4026839218898472 0.18824756990022293 -0.8957725779895656
0.04013681784272194 0.31448885798454285 0.034991513937711716 0.4982677434186404 -0.23264594384382514 0.8352275861593124
0.05051109194755554 0.3713666498661041 0.028101958334445953 0.8245244462090675 0.15184383034509513 0.5450714529213219
0.026305604726076126 0.247130885720253 -0.017764080315828323 0.734579232667589 0.5884300466332442 0.3378511967607847
0.0762115940451622 -0.22318518161773682 0.023683728650212288 -0.4569450341927521 -0.12606879732084111 0.8805156977979787
-0.0382423996925354 0.10235428065061569 0.1720159500837326 -0.2543472444775875 -0.949581713962996 0.18330861336488602
-0.026518166065216064 0.11787392944097519 0.1901639699935913 -0.27727664098907656 -0.08114627242755054 0.9573572723037772
-0.07384943962097168 -0.1178198754787445 0.0641518160700798 -0.12821759916433634 -0.10631278653592398 0.9860313578601345
-0.05919018015265465 0.08805457502603531 -0.018772680312395096 -0.7463800469113437 -0.03655352386616083 -0.6645153613465882
-0.023123864084482193 0.22616302967071533 0.06812448799610138 0.613038836570205 0.4922902963934093 0.6179268961078963
0.11722778528928757 -0.1106686145067215 0.03939567133784294 0.5594916233925878 0.6292670954688282 0.5394367858366272
0.10632550716400146 -0.185306116938591 0.040656398981809616 -0.0620506335943686 -0.665569130111807 0.7437522785933163
-0.11191469430923462 -0.3635183274745941 -0.0507933646440506 -0.2429638002661022 0.0854780074947462 -0.9662619220454575
0.010499495081603527 0.25846362113952637 0.01254279911518097 0.8596420260859178 0.06539912800781655 0.5066937349550666
0.18150560557842255 0.13788481056690216 -0.18131466209888458 0.7109879726478996 0.6688481462117751 0.21711347277196189
-0.04553912952542305 -0.10771609097719193 0.06717541068792343 0.10941239391787438 -0.2232901685660056 0.9685919825596973
-0.09200982004404068 -0.1592700034379959 -0.040276724845170975 -0.5111754835345523 -0.05001281388493449 -0.8580200134498773
0.05058671161532402 0.19449268281459808 -0.03127661719918251 0.9345525534473804 -0.09942708856416847 -0.34165154602991954
0.02905684895813465 0.24726903438568115 -0.024882212281227112 0.6697113441484992 0.6213167269334379 0.40675820870823276
0.08214717358350754 0.19538910686969757 -0.11295003443956375 0.8673711235260869 0.44515069615706837 0.22250436351669928
0.0864444300532341 -0.055068984627723694 -0.004714794922620058 0.7010240309278138 0.7131204722148194 0.004949764623944137
0.02306991256773472 -0.3505319058895111 -0.035670965909957886 0.8513909860906588 -0.3210628333248649 0.4147915691778048
-0.06304154545068741 0.16083991527557373 -0.016453195363283157 -0.7765289308089472 -0.10451533484510868 -0.621352850157564
-0.008203214965760708 -0.01830168254673481 -0.0654342770576477 0.08464095466386619 0.13907104620380303 -0.9866585797029128
0.09939087182283401 -0.17253634333610535 0.0510072335600853 -0.004995686108879368 -0.6885196245804467 0.725200503094077
-0.1050744503736496 -0.19026699662208557 0.01919216476380825 -0.2979052450028665 -0.9539660052944068 0.03466014631264701
0.07857974618673325 0.19634315371513367 -0.10431549698114395 0.91420104218934 0.22400341166680957 0.3377261109561335
-0.09762566536664963 -0.2346726953983307 -0.03288158029317856 -0.048316910610960606 0.21360625439057707 -0.9757242664986049
0.11493634432554245 -0.19285352528095245 0.0023001283407211304 0.5313769246652517 0.035123030983910127 -0.8464070750104838
0.03209357708692551 -0.18832288682460785 0.0010333288228139281 0.12452483616164883 -0.9870692353999517 0.10093507668729054
0.01914147660136223 -0.153986856341362 0.03374330699443817 -0.3871968991259055 -0.28049156642335804 0.8782955325359764
0.051714129745960236 0.3834328055381775 0.004462885670363903 0.8551321051416509 0.47916737935024456 -0.19785779065436687
0.06926833838224411 -0.2263498157262802 -0.0043633789755403996 -0.8243999239989848 0.3963175071572076 -0.4041004811073166
0.07243674248456955 -0.19767975807189941 0.0046335263177752495 -0.8385529142664906 -0.22337775951799055 -0.4969219119015567
-0.091224305331707 -0.24267958104610443 0.012715834192931652 0.41834299186526647 -0.16152739191214624 0.893810965931431
-0.09540150314569473 -0.3397352695465088 -0.014221285469830036 0.8372731758930587 -0.1284165593276106 0.5314911252508452
0.053038787096738815 -0.04720223322510719 0.02539007179439068 0.46997940206801236 0.5260078947187808 0.7088265347215141
0.004028197377920151 0.11798375844955444 0.19856180250644684 -0.49202495697391385 -0.04590012460706836 0.8693702434957582
-0.0890197902917862 -0.4040128290653229 0.015061549842357635 0.15836613962362164 -0.8506244099850659 -0.5013564390314241
-0.1270349770784378 -0.3458121120929718 -0.02261384204030037 -0.9621667099863273 -0.13825703462983888 0.2347769464181917
-0.055051349103450775 -0.13485676050186157 -0.06721529364585876 -0.5342423656878772 -0.19720070027301884 -0.8220078944365751
-0.12913349270820618 -0.3256782591342926 -0.0219794362783432 -0.998502424692906 -0.03353060767761116 -0.04322737825913014
0.028073135763406754 0.35506176948547363 -0.025393355637788773 0.48947325228537697 -0.016696152461312144 -0.8718584597227721
0.044694337993860245 -0.1853857934474945 -0.03533153980970383 0.5666567122013094 -0.7947135433589202 -0.21755586528317722
