ply
format ascii 1.0
comment VCGLIB generated
element vertex 393
property float x
property float y
property float z
property float nx
property float ny
property float nz
element face 0
property list uchar int vertex_indices
end_header
-0.08452154695987701 -0.1011945903301239 0.06393186002969742 -0.23488926760009377 -0.009313003053976171 0.9719775202855302
0.04246293753385544 0.28589946031570435 0.013721996918320656 0.5528502142452844 -0.8290268138462795 0.08409032365753821
0.09643901139497757 -0.22256670892238617 -0.018856488168239594 0.13737073149641776 0.37704580602300264 -0.9159507313652867
0.06849026679992676 0.104295514523983 0.20883435010910034 0.5489687699268829 0.46832907965371223 0.6923157970143914
0.00230929022654891 -0.080951988697052 0.054215800017118454 0.22592621667315244 0.1429189212890347 0.9636034072985289
0.046243105083703995 0.2160150706768036 -0.03187444433569908 0.9959496990013657 0.08832959869295573 0.016795209252364583
0.12386687844991684 -0.13863874971866608 0.0026411046274006367 0.6260226032847783 -0.07827332593548667 -0.7758666036269032
-0.13116654753684998 -0.15036167204380035 0.04918292909860611 -0.37400757434257276 0.06272937516176506 0.9253017668988855
-0.04753688722848892 0.11841893196105957 0.17817677557468414 -0.3761822164591453 0.21204694307303815 0.9019551174827185
-0.03979058936238289 -0.17858538031578064 -0.0741313025355339 -0.2864828809392438 -0.4706925140791338 -0.8344915314840622
0.011743562296032906 0.3946071267127991 0.02342996932566166 0.11674315013535791 0.896243150511441 0.42792435319551503
-0.07462920993566513 0.24990645051002502 0.057687364518642426 -0.5660572786951719 0.7771855288113444 0.2748850869771724
-0.08988480269908905 0.1601414829492569 0.11370408535003662 -0.9577141604071694 0.24870162281281458 0.14467580919373974
-0.035787954926490784 0.11586416512727737 -0.04366765171289444 -0.41701483788212007 -0.08668009721921817 -0.9047569760616472
-0.05680501088500023 0.15048040449619293 0.12942293286323547 0.8757975439770002 0.31946051470881653 0.36183372079704307
0.009623340331017971 0.20629402995109558 0.038379814475774765 0.6910971819520731 0.4814039206159129 0.5391056949370234
-0.08226153999567032 0.11946407705545425 0.1565949022769928 -0.6995058889801865 -0.017113420799596078 0.7144218936388883
0.023171570152044296 0.18998530507087708 0.03713277354836464 0.7175265944718346 0.43372778593087324 0.5450099026046717
0.08470415323972702 -0.15632891654968262 -0.01853848434984684 -0.17671546697562687 -0.4573663079928054 -0.8715432886808415
-0.08207959681749344 -0.2821132242679596 -0.017421521246433258 0.9812447713381032 -0.14501513949231823 0.1270012127487661
0.08766818791627884 -0.0904897153377533 -0.022888878360390663 0.7266596660514817 0.15483647998104097 -0.6693215925106779
-0.09314914047718048 -0.05340415984392166 0.06082822382450104 -0.5300651931083828 0.04767850269183955 0.8466154094014808
-0.019444825127720833 -0.0176770631223917 0.059433095157146454 0.4147242967329682 -0.0650622042603775 0.90761812855194
-0.12125547975301743 -0.4067595899105072 -0.02181735821068287 0.912223855505401 -0.13300580905602558 -0.3875010867135904
-0.04045472666621208 0.0492769330739975 -0.037532150745391846 -0.514295881582577 -0.00920662126324581 -0.8575633995875261
-0.12699319422245026 -0.4220060408115387 -0.03664521872997284 0.980086848830384 0.10662406737156585 -0.16751440835603337
-0.03933180496096611 -0.17777402698993683 0.029071073979139328 0.17532423491911284 -0.7577706073654653 0.6285261484321887
0.0704524964094162 -0.22271163761615753 -0.0063124108128249645 -0.8289007715797894 0.3943121107331399 -0.3967889491954205
-0.07174079120159149 0.02400016225874424 0.062427911907434464 -0.44573439998444075 0.2001057659126657 0.8725127661639204
-0.0977083295583725 -0.3331793248653412 -0.04147454351186752 0.6874233342441107 -0.05381088879145608 -0.724260690486639
0.04142547398805618 0.12631823122501373 0.01339763030409813 0.936711934460557 -0.16678357363912324 0.30782136281181727
-0.009427206590771675 0.06384161859750748 0.06060144305229187 0.2812234939606642 -0.011862052510228068 0.959568985615313
-0.03879808634519577 0.3288145959377289 -0.02074432373046875 -0.576484330277016 -0.5240672939215768 -0.6269125045704352
0.013502649031579494 -0.045939698815345764 0.04364224150776863 0.3601595618836994 0.07416980369043535 0.929937594790244
0.09259158372879028 -0.2181071937084198 0.02722231112420559 -0.11040453256628548 -0.14507291631998545 0.9832419275738981
-0.023721685633063316 0.2846483588218689 -0.020471971482038498 -0.2796071395543334 0.22124432833789645 -0.9342755453765001
-0.12193471938371658 -0.18864169716835022 0.010835337452590466 -0.7213745451091479 -0.6605681477134789 -0.20801078792926397
0.04451586678624153 0.14071713387966156 -0.015163131058216095 0.9081397128759782 -0.2722657361843119 -0.3180465858919892
-0.07729848474264145 0.10366405546665192 0.01355691161006689 -0.9964579982790345 0.032799205367109584 -0.07743171051336752
0.16383770108222961 0.14628131687641144 -0.19399778544902802 0.7029573747685974 0.5820322532280033 0.4087656852779782
0.07111489772796631 -0.08671268075704575 -0.03833651542663574 0.5709204000751887 0.18792725617005243 -0.7992078848249571
-0.02571677230298519 -0.1540525108575821 -0.08276598900556564 -0.1702835492045866 0.2309337219325802 -0.9579525713440384
0.03161368519067764 0.2430429458618164 -0.09068446606397629 -0.044752005518171635 0.6740132782809636 -0.7373624337481873
-0.07617728412151337 0.09372732043266296 0.028552664443850517 -0.9545343870754894 0.2137076025773978 0.20782965257883834
0.0259288027882576 0.2846265435218811 0.011129986494779587 -0.06529214622989589 -0.9969844704435554 0.04193925768390827
-0.01129902247339487 -0.016396062448620796 0.05506923794746399 0.460503298051178 -0.08726360071607106 0.8833582379046759
0.04383843392133713 -0.37527748942375183 -0.004459173418581486 -0.4676796887307557 -0.1082927182343083 0.877239075694949
0.04971492290496826 0.24035543203353882 -0.07649561762809753 0.7635599631849667 0.6426224304516599 -0.06334504322655507
-0.11135710775852203 -0.3902842104434967 -0.01316938828676939 0.680909694342834 -0.4610935341287093 -0.5689944999159879
-0.05865594744682312 -0.047842103987932205 0.07089370489120483 -0.04305240157661151 0.022202389666168627 0.9988260832655492
0.0096984738484025 0.19976183772087097 -0.07965106517076492 -0.21332928039694846 -0.8385772120018329 -0.5012772462784972
-0.0003587506362237036 0.37414297461509705 -0.034223414957523346 0.21273632764346023 0.28176806100973656 -0.9356014187118293
-0.0931033045053482 -0.17873826622962952 0.047540441155433655 0.0612880260332738 -0.5557877861531301 0.8290619486069466
-0.05118841305375099 0.07140045613050461 -0.027688615024089813 -0.6563710476173387 0.021626127732609666 -0.7541282108826125
0.057333096861839294 -0.02320600487291813 -0.010297886095941067 0.8408509125502285 0.5380135985724261 0.05925462525910158
-0.00041311897803097963 0.1369795948266983 -0.055128250271081924 0.10102045492994523 -0.14167460393674064 -0.9847452331873024
0.11081574857234955 -0.16622529923915863 -0.01491292379796505 0.6778982325381752 -0.49922104156567615 -0.5396594648291642
-0.06443524360656738 -0.21168619394302368 -0.01999524235725403 0.5591840333888193 -0.2998640202879016 -0.7729131815021587
-0.05898284539580345 0.07525288313627243 0.05861581489443779 -0.44423354196409887 0.20394805672993319 0.8723885317621474
0.08245117217302322 -0.3143560290336609 -0.019146624952554703 0.7569107499578389 -0.6487522163647698 -0.07878247495516331
0.039808325469493866 0.37045374512672424 -0.013047842308878899 0.7613077870346823 0.2147579591926139 -0.6117920172442416
0.021400390192866325 0.11743317544460297 0.18996718525886536 0.16399535850318353 0.9846773437275946 -0.05929629953868047
-0.07870295643806458 0.08344696462154388 0.025914499536156654 -0.9392092208327404 0.31721976288779463 0.13136841909746846
0.0018492704257369041 0.37141990661621094 0.04261774942278862 -0.08702495257159572 0.2838260628956661 0.9549185429402117
-0.005925546400249004 -0.010631495155394077 -0.06314720213413239 0.10849096830226251 0.11614599284827239 -0.9872891259110103
-0.08935533463954926 -0.05284123122692108 -0.04253856837749481 -0.4100011550732499 0.15940387729358146 -0.8980475804445852
-0.019006000831723213 0.21036766469478607 -0.06709475070238113 -0.48588949058531616 -0.01841956676956771 -0.8738261397433493
0.010699793696403503 0.29341596364974976 -0.014919119887053967 0.4151194892973882 -0.2837152435653049 -0.8643965931065181
-0.050030652433633804 0.14714419841766357 0.06449606269598007 -0.4042191033042624 -0.13746447241058893 0.9042734295271405
0.03836479410529137 0.08475139737129211 -0.002262378577142954 0.9920934053216235 -0.040931199885385725 -0.11863942006469672
0.05701673775911331 0.21448437869548798 -0.1152036115527153 0.13885634627585225 0.7676871300709092 -0.6256000203184232
0.04549850523471832 0.23569601774215698 -0.09711546450853348 0.3342033450085246 0.7485933654113225 -0.5726395877401974
0.014818891882896423 -0.195856511592865 -0.012007365934550762 0.13040563490769944 -0.9905371797529144 0.04278394455239417
0.13716110587120056 0.1385938674211502 -0.17382928729057312 0.3675575130436117 -0.1490823775299165 0.9179738118896544
-0.11084975302219391 -0.08592596650123596 0.050281018018722534 -0.676783698536563 0.09865239007673336 0.7295420010714385
0.03999127820134163 -0.38129696249961853 -0.04696190357208252 0.017299869335876752 -0.48759875506338396 -0.8728964248876265
0.03163931518793106 -0.19021345674991608 -0.018117938190698624 0.4423530943958178 -0.8945455433234596 0.06412496236709617
-0.1090439110994339 -0.363481342792511 -0.010305076837539673 -0.07436242492873729 -0.22389135686791953 0.9717730651127144
0.10078456252813339 -0.08305975049734116 0.020875634625554085 0.6531053482906064 0.6275431452555711 0.4238431371120109
0.08863797783851624 -0.17396102845668793 -0.008565250784158707 -0.12628950612895048 -0.5034707565915153 -0.854732799124307
-0.0840890109539032 -0.0014740052865818143 -0.03261015564203262 -0.5382199036332739 0.36689191350581557 -0.7587553354916396
0.10150700062513351 0.15161147713661194 -0.19234631955623627 -0.39094339941409745 0.05469230967474843 -0.9187883378216067
-0.046832598745822906 0.24526552855968475 0.06237230822443962 0.5046721387095771 0.6997494342204925 0.5056251197462427
-0.05014852061867714 0.3324158191680908 -0.01118515245616436 -0.8040750721470732 -0.5610516549822553 -0.19668329566425197
-0.08573517203330994 -0.07889280468225479 0.06432643532752991 -0.3770475595576852 -0.0311124724531799 0.9256711899424352
-0.08319353312253952 0.19733259081840515 0.06380268186330795 -0.9286753075207981 -0.36416923234579107 0.07030606953761984
-0.08096867799758911 -0.2284611165523529 0.015247787348926067 0.3174938867930155 -0.3094795083551623 0.8963370268806877
-0.04619200900197029 0.1339198499917984 0.169886514544487 0.17077013267927918 0.8742195258299977 0.45450828643961544
0.020050199702382088 -0.19311876595020294 -0.04088388755917549 0.24882831396510735 -0.8825918787220728 -0.39889352687543567
-0.09914442151784897 -0.07044181227684021 -0.0417349711060524 -0.49398214438579524 0.19602534972838043 -0.8470865972802766
0.018324142321944237 0.3199579119682312 -0.02347155101597309 0.2520852738593437 -0.23498228461084386 -0.938741892440264
0.03290718048810959 -0.1464388221502304 0.05111180990934372 -0.1719024181158499 -0.1363598684609999 0.9756308445919607
-0.07361062616109848 0.08906599879264832 -0.006681152619421482 -0.8819655309158535 0.012449403787979834 -0.4711494610223391
-0.05129418894648552 0.3329942226409912 -0.007172754500061274 -0.8131602211630309 -0.5637796214786659 -0.14464782446847588
0.034711357206106186 0.39445438981056213 0.008992870338261127 0.49530280094695744 0.8618509647693317 0.10903233419619532
-0.029630374163389206 0.33181971311569214 0.0327250175178051 -0.5582639405697357 -0.24426565137607392 0.792890701305907
-0.022647187113761902 0.10220177471637726 0.18637247383594513 -0.3569661800145729 -0.3421614099731558 0.8691954416878781
-0.12644289433956146 -0.24755951762199402 -0.015749989077448845 -0.9415442960879574 0.321966248441499 -0.09915681201379821
-0.07443327456712723 0.1321202665567398 0.10211161524057388 0.16700282259447832 -0.7537782399669096 -0.6355536343990688
-0.07891859114170074 0.15166696906089783 0.019218452274799347 -0.9736425894910876 -0.20901126805095227 -0.09129292281892609
-0.07154856622219086 -0.1843957006931305 0.03931346535682678 0.2917956905924407 -0.7721058078878013 0.5645422007056747
-0.03328368067741394 -0.18740320205688477 0.012186486274003983 0.06220507184224756 -0.7715228524196632 0.6331532336104171
-0.02000068500638008 0.21200399100780487 0.06661738455295563 0.5001963964632439 0.36528594241144335 0.7850921890082522
0.07621613144874573 -0.04746057465672493 -0.0005948207108303905 0.7390693034106144 0.6366353305586535 0.2201636224280102
-0.07790182530879974 0.2493036687374115 0.04600026085972786 -0.7113041215147237 0.6907081867803323 0.1302637610035609
0.03059685416519642 0.16691917181015015 -0.04596390202641487 0.6172997485675905 -0.19851101651445816 -0.7612715656983297
0.03939254954457283 -0.11191035807132721 -0.04579292982816696 0.48721394264109225 -0.0599624490165425 -0.8712216014333328
-0.1302320510149002 -0.3339850902557373 -0.024029407650232315 -0.9882561905781493 -0.12578034535089644 0.08676984791604692
-0.12654830515384674 -0.1288764327764511 0.01961672119796276 -0.8859339305479593 0.211505891497249 -0.4127787889000564
-0.06989210098981857 0.014857233501970768 -0.035248614847660065 -0.5061170650697641 0.3979385756714707 -0.7651734485969371
-0.02847413346171379 0.31380388140678406 0.027594102546572685 -0.544957468708769 -0.29714155435683137 0.7840460789857553
-0.11852792650461197 -0.353073388338089 -0.010670691728591919 -0.5469761283647793 -0.22039102125845195 0.8076168105901048
-0.030711650848388672 0.01570294424891472 -0.05347619950771332 -0.29809236420390667 0.3338020056977304 -0.8942690665540758
-0.08034006506204605 -0.10969661921262741 0.0647200495004654 -0.1470196891838514 -0.03699968242002512 0.9884413156546529
-0.04336290434002876 0.17292778193950653 0.07002945244312286 -0.31838032036728336 -0.125027443009003 0.9396819196395431
-0.01501037273555994 -0.19738604128360748 -0.028187645599246025 -0.10126675427046082 -0.9925564979014717 0.06765089026089709
-0.07488689571619034 -0.18512345850467682 0.03276250511407852 0.29544760301001566 -0.8123091312578637 0.5028564299586222
0.028846757486462593 0.37943848967552185 0.03485596552491188 0.4081977737647942 0.4414784150938863 0.7990440454065445
-0.08000871539115906 0.23166143894195557 0.08068713545799255 -0.5753386216181907 0.6008736502178983 0.5549201086177176
0.033142805099487305 0.015647973865270615 -0.043640926480293274 0.6453479223590015 0.24035736461876658 -0.7250892333916161
0.031244736164808273 0.18653686344623566 -0.08572005480527878 -0.18252286526882155 -0.8662208677050758 0.4651309622099192
-0.09425701200962067 0.015262741595506668 0.04836118221282959 -0.7667821966132752 0.19972209911469008 0.6100460196428974
0.009765795432031155 -0.08638069778680801 -0.061299100518226624 0.23142222002890772 0.03698112976893706 -0.9721502723951195
-0.10046956688165665 -0.17881646752357483 -0.053208377212285995 -0.7053713023256122 -0.39923353660061794 -0.5857165774577607
-0.11611846089363098 -0.16780434548854828 -0.011572759598493576 -0.7784510030793426 -0.01109459526623188 -0.6276073181222827
-0.07745222747325897 0.12328652292490005 0.024227280169725418 -0.9919767574774734 -0.0028890031069156176 0.12638736600438488
-0.018091417849063873 0.31868886947631836 0.033535558730363846 -0.4275959451562627 -0.3849280033153772 0.8179193969759851
0.07037107646465302 -0.38253405690193176 -0.021683555096387863 0.8296283295376029 0.4842447005788874 -0.277891894070177
-0.04391615092754364 0.23686322569847107 0.07068455964326859 0.5781017260427206 0.5831850857754219 0.5706956720315487
-0.016260815784335136 0.00262082414701581 0.05940452963113785 0.37289133775137123 -0.12415047517055107 0.919531788327581
-0.03625078871846199 0.11752703785896301 0.14849066734313965 0.49698423589178237 0.23768820358354925 -0.8345723378786806
0.06579305976629257 -0.3260762095451355 -0.03339511528611183 0.45627507497377806 -0.11365619045560146 -0.8825504667319559
0.009743277914822102 0.25795120000839233 -0.002750735031440854 0.9772844823320564 0.09480566101522253 -0.18954399814404924
-0.09606239944696426 -0.3520881235599518 -0.029881808906793594 0.9299655269863673 -0.16510132988693726 -0.3284899838450679
-0.11381031572818756 -0.41401126980781555 -0.05936595797538757 0.382593987993133 -0.009508632207506088 -0.9238676454260387
-0.0075638629496097565 0.27180129289627075 -0.03155766427516937 0.3143972446309969 0.6590670331806704 -0.6832166701295178
0.1807909607887268 0.07847879081964493 -0.2076418697834015 -0.7536154258839863 -0.6517079727943833 0.08567676502957648
-0.04733067378401756 0.2534784972667694 -0.007574769668281078 -0.7187801665933437 0.523531206944287 -0.45746054197876274
0.021991634741425514 -0.004055855330079794 -0.05378631874918938 0.4787032187465328 0.20809997713712972 -0.8529581630286653
-0.05905723199248314 -0.18074995279312134 0.03498416766524315 0.19512213741842502 -0.9228961124206941 0.3319489677164773
-0.007208558730781078 -0.1495005339384079 0.03596718609333038 -0.024191943441814343 -0.4692140181038294 0.8827530544197326
-0.007003061939030886 0.09331104159355164 0.1842053085565567 -0.20076077103218293 -0.7577946848696484 0.6208400183605064
-0.046334780752658844 0.11615734547376633 -0.037685662508010864 -0.5906974576380452 -0.041300094670305716 -0.8058354768314521
-0.08643001317977905 0.22219905257225037 0.02519836649298668 -0.9652801797404331 0.20914349230478643 -0.15650295277353382
-0.04144757613539696 0.09724187105894089 0.15113738179206848 0.2780181803368437 -0.8339723772540691 -0.4766507792707225
-0.05411301553249359 0.10144394636154175 -0.027681434527039528 -0.7155176073833661 -0.07422324768052711 -0.6946405279193968
-0.07111115008592606 0.05815129354596138 0.05541007220745087 -0.6155306004991252 0.18436817366074146 0.7662443842470816
0.11516537517309189 -0.140073761343956 0.057649269700050354 0.36052915574866334 0.2832243338441362 0.8887084474526511
0.1282593309879303 -0.15935780107975006 0.0075776344165205956 0.6162785156968446 0.031815940130581886 -0.7868853391975869
0.038744278252124786 -0.3512994349002838 -0.04310830309987068 -0.1063080376937768 0.1831071749280496 -0.9773281760041338
0.14792083203792572 0.15430381894111633 -0.18603505194187164 0.571026962037892 0.7825110992374671 0.24820271593185014
-0.009948286227881908 0.009516068734228611 -0.059865403920412064 -0.06481539398070493 0.25877044566549817 -0.9637618072704508
0.021326735615730286 -0.18189594149589539 -0.06043599918484688 0.44391688680744773 -0.5622702495501885 -0.6977033496250056
0.03860330581665039 0.17117604613304138 -0.11605512350797653 -0.3517064652974257 -0.911506379453062 0.213210418329784
0.002422191435471177 -0.12559963762760162 0.049990348517894745 0.01740572792778077 -0.4414744529319243 0.8971049816179612
0.062242504209280014 0.19077840447425842 -0.09383716434240341 0.761503450472259 -0.3118005957144166 0.5682366438650176
0.085269495844841 -0.40407639741897583 0.00038447006954811513 -0.7571914079326953 -0.3930824442304053 -0.521677451871128
-0.0877055823802948 -0.22772623598575592 0.016632284969091415 0.2423265795674916 -0.1925540029833621 0.9508947285426519
0.04872173070907593 0.1699696034193039 -0.10825600475072861 -0.13132081306223067 -0.8730659129061525 0.46958572782615676
0.14338275790214539 0.14191100001335144 -0.2091357409954071 -0.45361643488213405 -0.24316976838079044 -0.8573800754335591
0.0680890828371048 0.1120958924293518 0.20224474370479584 0.4541928174191896 0.8246747635205459 0.3370762807097977
-0.05361749604344368 0.14796429872512817 -0.033342305570840836 -0.6814095186931756 -0.10996932496563791 -0.7235936811505037
0.009444496594369411 0.10611600428819656 0.05250531807541847 0.5108481590261118 0.01776606954613681 0.8594873618573541
-0.04417075961828232 0.22430658340454102 -0.041850391775369644 -0.7537950124537833 0.24567469572419576 -0.6094563340228932
0.05074499174952507 0.21765899658203125 -0.06071098521351814 0.8953168161286823 -0.28876212143563673 0.3391522312785073
-0.052121490240097046 0.36599186062812805 -0.018650904297828674 -0.7625425010506265 0.07710073396638668 -0.6423273393786847
0.12134853005409241 -0.21443168818950653 0.024962173774838448 0.6500237101665727 -0.2827042795995304 0.7053704463027879
-0.03654368221759796 -0.1565389484167099 -0.0775599554181099 -0.356161615251599 0.04753433406243493 -0.9332145470933321
-0.03802010044455528 0.3667334318161011 0.02756011299788952 -0.6622004881653547 0.3047067840632922 0.6845759922896597
0.11124160885810852 -0.1409999132156372 -0.007161079905927181 0.8867797590885734 0.14391715209174918 -0.43921465390468484
-0.04192442446947098 -0.18790724873542786 0.011320487596094608 0.046588568941915307 -0.7923956102207138 0.6082258644178882
-0.11165925115346909 -0.044976864010095596 0.04287722706794739 -0.8571888466843022 0.17685581213911514 0.48368306031186353
-0.06989597529172897 0.06193048134446144 -0.01701083965599537 -0.6888785788446473 0.07879075862967498 -0.7205819314717372
-0.12203604727983475 -0.3368191123008728 -0.04271683841943741 -0.5093495230816869 0.08369140930494283 -0.8564804792550796
-0.007794978562742472 -0.1984264999628067 -0.025737952440977097 -0.04162740305891705 -0.9971543271023553 0.06285226531812133
-0.121263287961483 -0.3089451491832733 -0.041814036667346954 -0.6273797924203717 -0.1220499540884415 -0.7690893347131923
0.042353615164756775 0.15690292418003082 -0.030560113489627838 0.805618371158233 -0.2530182501210458 -0.5356872269879501
-0.002939365804195404 -0.01606212556362152 -0.06367908418178558 0.1247477244048425 0.08204640309211653 -0.9887903685794374
-0.033685509115457535 -0.192276269197464 -0.04659535735845566 -0.11465486163000063 -0.9741340386579647 -0.19472323290385388
0.09739294648170471 -0.07200875878334045 0.009857801720499992 0.7233576184759223 0.6534611375582063 0.2230298130160564
0.04853714257478714 -0.04441864788532257 0.024563809856772423 0.5322165250829823 0.4651353059296738 0.7073858336200295
0.007180383428931236 0.13634411990642548 0.05599861592054367 0.607329023539288 -0.1928903697155731 0.7706781185668921
0.014306255616247654 0.19632069766521454 0.04243743419647217 0.7048817428688102 0.5004169591977701 0.5027172122749387
-0.04488685354590416 0.09327565878629684 -0.03714945912361145 -0.573251311234511 -0.11732542720244248 -0.8109362973129753
0.06343550235033035 -0.08923430740833282 -0.04361797869205475 0.4337653961243354 0.11430313937854354 -0.8937462578681422
-0.05617590993642807 0.37283629179000854 0.0011841951636597514 -0.8462284981808148 0.3818132843825789 0.37163953602332284
-0.12216032296419144 -0.24376219511032104 -0.024836057797074318 -0.7816213263306443 0.37543984934846397 -0.49810944755779063
0.04550035670399666 0.2004467099905014 -0.027987295761704445 0.9548506998486398 0.06267143965686878 -0.2904004677163906
-0.06179572641849518 0.1395624428987503 0.11068955063819885 0.7952177836178639 -0.46798882873487024 -0.3855063330183519
0.03724303096532822 0.2534973621368408 -0.06456144154071808 0.47521158312065737 0.8787984289195757 -0.04344275079278724
0.06262127310037613 -0.08841745555400848 -0.044008754193782806 0.4337653961243353 0.11430313937854349 -0.8937462578681423
-0.10136683285236359 -0.1434309482574463 -0.04968483746051788 -0.5954459989232092 0.01923323298683963 -0.8031650796163985
-0.13179707527160645 -0.29122722148895264 -0.020231880247592926 -0.9994408012570238 -0.016503208182651233 -0.029081418507324958
-0.1214752197265625 -0.3016573190689087 -0.04172031581401825 -0.5883800327678903 0.06667568903052318 -0.8058308070137064
0.07294439524412155 -0.2585405111312866 0.02041574753820896 -0.300271568076322 -0.1545577109401064 0.941248585334364
-0.05274539068341255 -0.051355279982089996 -0.0556739941239357 -0.2829813417034712 -0.012198461182276984 -0.959047839157405
-0.0998336598277092 -0.4217265248298645 0.004020694177597761 0.12368531099214561 0.7627781753984736 -0.6347215129334689
-0.052900541573762894 0.2308771312236786 -0.029375096783041954 -0.7701146252903377 0.3698958682369188 -0.5197119496174578
-0.1310107558965683 -0.3094824254512787 -0.022873440757393837 -0.9983593691623066 -0.04426940771212244 -0.03631514211261025
-0.0946868509054184 -0.28012773394584656 -0.043650224804878235 0.3261795449737498 0.08392643408161525 -0.9415748818352483
0.01165004726499319 0.349446177482605 0.041256655007600784 0.045508062344463356 -0.02875451293599674 0.9985500459403455
-0.08004559576511383 0.07984055578708649 0.02347971312701702 -0.9314197186791326 0.3428669879993193 0.12206365632718133
-0.07516959309577942 0.12462134659290314 0.0003939407179132104 -0.9567562093738364 0.02140655164534229 -0.29010224985556904
-0.10994286835193634 -0.1479143500328064 -0.04318962246179581 -0.8205434418499932 -0.0969661992857006 -0.5632992244207805
-0.07844004780054092 -0.09683633595705032 0.06667445600032806 -0.19234053303000526 -0.04544164614995842 0.9802755613341156
0.14918966591358185 -0.1759060025215149 0.03048623353242874 0.9323708370989652 -0.3593744266870332 0.03917452706467927
0.05147343501448631 0.18276984989643097 -0.02174931950867176 0.9147874360363264 0.16220565714959503 -0.3699368482035171
-0.07631853222846985 -0.12302332371473312 -0.06226181983947754 -0.23927393136667802 0.2119563527211931 -0.9475349546636597
0.007516559679061174 0.16501584649085999 -0.05836285650730133 0.3087692806824074 -0.2093209103096391 -0.9278180251611913
0.04277307912707329 -0.1756877303123474 0.045559968799352646 -0.19023258428888035 -0.6117108679798203 0.7678680732197092
-0.06484227627515793 -0.11701574921607971 -0.062296729534864426 -0.12159388844340048 0.24090354221970292 -0.9629020768693012
0.08990922570228577 -0.1666380763053894 0.06493231654167175 -0.035111099000487034 -0.37878969181600325 0.9248165115853605
-0.03168068826198578 0.24182364344596863 -0.05027185380458832 -0.643207912840634 0.3962823542656717 -0.6551670600364856
-0.023842744529247284 0.07613914459943771 0.06454719603061676 0.11951533814784046 -0.02182139777544372 0.9925925198924951
-0.01343702245503664 0.10586768388748169 0.19119592010974884 -0.2543199046590812 -0.22425285314783103 0.9407614171240513
0.014920548535883427 0.09218122065067291 -0.03979586809873581 0.43709346767431345 -0.06710308077358332 -0.8969094029316104
-0.09659109264612198 -0.06479000300168991 0.05875380337238312 -0.5478503326901326 0.03614546865845774 0.8357951412079228
0.034687865525484085 -0.11173205822706223 -0.04901357740163803 0.47922643659530323 -0.0020790151108922225 -0.8776888401730631
-0.008479450829327106 -0.024548670276999474 0.052912600338459015 0.4339511395125968 -0.04484404529692221 0.8998196597747387
0.1423429250717163 -0.15528549253940582 0.03737352415919304 0.8859439204208488 0.27583181997035133 0.3728540960767101
0.011604093946516514 0.26218676567077637 -0.05537281557917595 0.09690078351272884 0.9787581097567433 -0.18067318766221588
0.18845146894454956 0.12575237452983856 -0.2116369754076004 0.6189209330618795 0.7705296216315014 0.15238431942371192
0.16046565771102905 0.11971165239810944 -0.20286881923675537 -0.30524490410357724 -0.9298058192574696 0.20563727043934404
-0.11589457839727402 -0.19212467968463898 0.005005894228816032 -0.8466514011877945 -0.45639197016639843 -0.2736563071342916
-0.09874514490365982 -0.35838666558265686 -0.014840091578662395 0.7946122964740536 0.1722360160406178 0.5821735592335734
0.026273882016539574 0.3196132779121399 0.03919023275375366 0.2751439069971398 -0.15867818012095536 0.9482178365733536
-0.08270254731178284 0.03412048518657684 -0.01156015507876873 -0.6490670700851896 0.5029323171236507 -0.570763543793455
0.017509708181023598 0.09396753460168839 0.1908072978258133 0.12930906563467331 -0.9841719601699322 0.12118051972145202
-0.09724810719490051 -0.027174292132258415 0.054640259593725204 -0.685174110964107 0.18399950849548058 0.7047557155057116
-0.019278215244412422 0.01912878267467022 -0.05549659952521324 -0.1649871823483998 0.32081830585573434 -0.9326600904341262
0.03956938162446022 0.24369600415229797 -0.04588733986020088 0.7413900540674417 0.592105669314279 0.31583486839765784
-0.07115253806114197 -0.19192641973495483 -0.024936795234680176 -0.1570536148075051 -0.7115972740989384 -0.6848090840306199
-0.10898290574550629 -0.0008471179171465337 0.015324918553233147 -0.9567465730048192 0.2853433957699449 0.05670221806958558
-0.02514410950243473 0.11230635643005371 0.15439003705978394 0.5284637924025148 0.1596092019092135 -0.8338170799314772
0.036520276218652725 0.10763061791658401 0.023421354591846466 0.9186808057650983 -0.06286060429412157 0.38996682108426595
-0.0490119569003582 -0.11925292760133743 0.06498873233795166 0.16690962913128066 -0.2742374858562688 0.9470665114206558
-0.00981548149138689 0.12242007255554199 0.1824900060892105 0.1299003102700809 0.8688941818432565 0.47764925431813954
-0.05272344872355461 0.35557571053504944 -0.01875411346554756 -0.8269713667524857 -0.07711091013230964 -0.5569311143311108
-0.06383116543292999 -0.42036303877830505 0.04046753793954849 -0.24128605792575583 -0.9579820377449048 -0.1550853107446631
0.004679956939071417 0.3413197696208954 -0.03355702757835388 0.29858633806116947 -0.10195840152109019 -0.9489207991621247
0.055772241204977036 0.22478839755058289 -0.10113654285669327 0.7070079987712322 0.6067416999399721 -0.3633238214423194
-0.08337056636810303 -0.15875771641731262 -0.06060423702001572 -0.5036564513229268 -0.049306909998886664 -0.8624958015359601
0.14122885465621948 0.128441721200943 -0.1919144243001938 -0.5058593995814221 -0.8153658324708606 0.28157561523367713
0.09381787478923798 -0.25987040996551514 0.01642601564526558 0.2836297036687207 -0.3719463406195952 0.8838609115106777
-0.1142776608467102 -0.18500196933746338 -0.011542882770299911 -0.7791961292901586 -0.10951944881059177 -0.6171376527416382
0.015094409696757793 0.4001467227935791 0.0050556957721710205 0.20290296023951784 0.9786460500387871 0.032898289765889856
-0.10951364040374756 -0.020045949146151543 0.034571558237075806 -0.8403998172613113 0.3081032810573763 0.4458705141056471
-0.05536782369017601 0.13021758198738098 0.17035110294818878 -0.3254483551406347 0.6348591789385243 0.7007404591243168
-0.04228205606341362 0.2776206433773041 0.00015934620751067996 -0.856212069631306 0.3769914358434636 -0.3532397898288912
0.10911131650209427 0.14244072139263153 -0.15866586565971375 0.14918687034240977 -0.6626306634640373 0.7339372463328503
-0.1315230280160904 -0.2861506938934326 -0.015180672518908978 -0.9902452059549598 0.017402104092845816 0.13824470643160625
-0.0901455283164978 0.11935269832611084 0.12659481167793274 -0.8691085252529327 -0.37613459506390945 -0.321205756064211
0.0317041240632534 -0.19006997346878052 0.020592698827385902 -0.11778106117085305 -0.9328807982231497 0.3403836628512111
0.0021681853104382753 0.40249815583229065 0.0010130340233445168 -0.0008252713825806515 0.9931378118490577 -0.11694702049565413
0.005876405164599419 0.2714823782444 -0.016813065856695175 0.8960957606263675 0.14740403171807043 -0.418669845129441
0.0772755965590477 -0.25929149985313416 0.02001955918967724 -0.1012575024233056 -0.24893769076652905 0.9632117858076812
0.019599026069045067 0.16185742616653442 -0.05257550999522209 0.4588569956782503 -0.19599380209518008 -0.8666237286489481
-0.050946611911058426 0.2373320609331131 0.0782979354262352 0.44937740272586446 0.6113924212383218 0.6513518689400521
-0.03161546587944031 0.2569299340248108 0.0371580570936203 0.4896988776312192 0.4300945056958682 0.7584284576787391
-0.042781710624694824 0.11683797091245651 -0.03996982052922249 -0.4893822312067259 -0.06940840634683378 -0.869302884446796
0.06604839116334915 -0.3692530393600464 -0.019374703988432884 0.9847553487801761 0.09710088756729246 -0.1443202019208596
0.047431595623493195 -0.3039553165435791 -0.026303982362151146 -0.8575840852904043 0.24353045703749274 -0.4530369225038182
0.047977522015571594 0.1440211683511734 0.0001407818344887346 0.9348421616958277 -0.3539111774873398 0.028583407169139385
-0.016195762902498245 -0.019197165966033936 0.05756369233131409 0.4305154448330348 -0.055538051789929946 0.9008728970080038
-0.013096136040985584 -0.07220043987035751 -0.06321235001087189 -0.0023701987679902578 -0.03992336628644273 -0.9991999334378274
-0.12416810542345047 -0.37459659576416016 -0.027221400290727615 0.9371008719993449 0.0030871952012815253 -0.34904501847735453
0.07547114044427872 0.14849448204040527 -0.15841332077980042 -0.4397890076155359 -0.8980927479556752 0.0038787691303305088
0.11086515337228775 -0.11129521578550339 -0.006946507375687361 0.6306344489202492 0.12606731232000515 -0.7657723059757803
0.09495449811220169 -0.29327985644340515 -0.014589449390769005 0.8899068764249273 -0.4280589825578092 -0.15757937283541432
-0.0884261280298233 -0.192510724067688 -0.02160954847931862 -0.14076268727674138 -0.3738709125860186 -0.9167368251536141
0.04480874910950661 0.3376848101615906 0.01876656338572502 0.954310788997405 0.039616611024322484 0.29617805815775416
-0.10272443294525146 -0.15028342604637146 0.05825350433588028 -0.3174779179408124 -0.1515193375159603 0.936082080791365
0.10396483540534973 -0.11852103471755981 0.04980998858809471 0.26903539314454716 0.4999931539831176 0.8231809055156547
-0.02139843814074993 0.25552618503570557 -0.04878271371126175 -0.4940704424134467 0.5981665983402398 -0.6309446240070894
0.019624745473265648 0.04693705588579178 -0.042802754789590836 0.3588544660575485 0.19988970426712308 -0.9117387664888194
0.029352815821766853 0.2577372193336487 -0.06253430247306824 0.3470698776226058 0.9255159706616406 -0.1515344452501505
-0.048885151743888855 -0.035627834498882294 0.07031534612178802 0.11066385935660257 0.08726555056751699 0.9900193098704946
0.04035748168826103 0.32334455847740173 0.03189445286989212 0.7108217180178593 -0.006694447601192602 0.7033403653747266
0.029047414660453796 -0.03212284296751022 -0.05670406296849251 0.3759953402143791 0.07814584355146866 -0.9233204921763097
-0.05010230839252472 0.04152486100792885 -0.03024725802242756 -0.5817817321473804 0.21641723994178474 -0.7840239756509835
0.058179814368486404 -0.3887083828449249 -0.04097040370106697 0.37566180610489536 -0.24375756774623042 -0.8941255256396891
-0.06637291610240936 0.16022281348705292 -0.018996285274624825 -0.8095129606967216 -0.1476678255997768 -0.5682279293968769
0.014329849742352962 0.28817838430404663 0.020154528319835663 -0.03593856600106427 -0.8142523927138297 0.579397497779884
-0.0779901072382927 -0.40909910202026367 -0.0016842626500874758 0.9506802121392944 0.1054177210371614 -0.29170916738785807
-0.07601937651634216 0.08003068715333939 0.04046221077442169 -0.8696859906959516 0.26834867951135494 0.41428886515535657
-0.08547740429639816 0.19623947143554688 0.08367748558521271 -0.9994106923693635 -0.019235896588848268 0.028429707353622095
-0.11245463788509369 -0.15355190634727478 -0.03291748836636543 -0.9497048752458244 -0.2418883026928485 -0.19887357530523314
-0.0366341806948185 -0.09973816573619843 0.0658533126115799 0.2166151523903656 -0.11343602627876206 0.9696443387639525
-0.04430098086595535 0.21944548189640045 0.0797458067536354 0.6087028128051877 0.4013691042519933 0.6843856572393999
0.11140834540128708 0.13313589990139008 -0.17381837964057922 -0.19731484168361324 -0.9802496446491366 0.013322440339978486
0.03121689148247242 -0.08404458314180374 -0.05353567749261856 0.3327852381534672 -0.07353610251033052 -0.9401310689976852
0.06756290793418884 -0.13653504848480225 0.056073643267154694 -0.20438630326970864 0.18400271065297935 0.9614412314375221
0.0413048192858696 0.1753777712583542 0.024686794728040695 0.7697398882277292 0.12566618977379532 0.6258662103188665
0.13342715799808502 -0.16847850382328033 0.010329504497349262 0.6071860032511653 -0.02575439098566723 -0.794142222023759
0.04245002940297127 -0.18377803266048431 -0.00941499974578619 0.42016042335931014 -0.8946437300229415 -0.151913840624097
-0.12861762940883636 -0.11847367137670517 0.028107229620218277 -0.9430909486693158 0.30650955870951363 -0.12896260294251732
-0.11935419589281082 -0.05570730194449425 -0.014398801140487194 -0.8993058794226169 0.19146814491767997 -0.39317793009996915
0.06731490045785904 0.169224351644516 -0.11281777918338776 0.4880235946818334 -0.607556233232481 0.62666449914941
-0.07853663712739944 -0.4210498034954071 0.043448690325021744 -0.07969425972820242 -0.9965736864038718 0.022129449468331668
0.030900906771421432 -0.18200407922267914 0.03603839501738548 -0.17125045397473954 -0.7835591825936822 0.5972506085275814
-0.11586037278175354 -0.2064215987920761 -0.005243098363280296 -0.9928287858683009 0.09194009016762135 -0.07640694844871844
0.02619767189025879 -0.11377734690904617 -0.057072047144174576 0.5706102511143374 0.11840061550229443 -0.8126409019806417
0.03365477919578552 -0.11492832750082016 -0.05022947117686272 0.5159805194584006 0.005122235462672598 -0.8565850023455372
0.07725873589515686 -0.3048124313354492 -0.03166348487138748 0.6057296420594301 -0.17626195567861616 -0.7759016198661428
0.028969738632440567 0.07096125930547714 0.03142450749874115 0.824002101505195 -0.01916205061374454 0.5662626179885959
-0.10675124824047089 -0.02956107072532177 -0.02565978281199932 -0.752839046723154 0.16324265065917237 -0.6376403427754083
-0.09528619050979614 -0.09892186522483826 -0.048630621284246445 -0.5830215575190821 0.12360528772311757 -0.8029991259739385
0.05969972908496857 -0.26349955797195435 0.012306172400712967 -0.7640002440867766 -0.0175538791461423 0.6449771223557224
0.04152311012148857 0.20359323918819427 -0.0018426107708364725 0.8497972823678841 0.47537897810655144 0.22772660374784895
-0.09764761477708817 -0.17855629324913025 -0.05101575702428818 -0.7053713023256118 -0.3992335366006183 -0.585716577457761
0.05159534141421318 0.08993440121412277 0.18085038661956787 -0.30011655738966647 -0.6151156770631986 -0.7290835040046221
-0.0687037780880928 0.07724609971046448 -0.010170732624828815 -0.7882351335277235 0.09594481854858279 -0.607848637463482
0.018686870113015175 -0.16425172984600067 -0.07205818593502045 0.5737380148241825 -0.0879921690307111 -0.8142985131601782
-0.05224157124757767 0.12625738978385925 0.1422514170408249 0.6049549312728836 0.45849939894230557 -0.6510052475196842
-0.024110479280352592 -0.1452399045228958 0.040680378675460815 0.1920749091314194 -0.5921810337698211 0.7825783363507214
0.12820181250572205 -0.16071951389312744 0.055103860795497894 0.6245511194594018 -0.1388349324230706 0.7685445730216884
0.10401850193738937 -0.0796755850315094 0.005378172267228365 0.7620869246266754 0.643296393109776 0.0734388856465611
-0.07949923723936081 0.24602939188480377 0.054760001599788666 -0.7037709403662321 0.6581247653509491 0.2675411309084782
-0.07363954931497574 -0.18281391263008118 -0.05395838990807533 -0.4093878672450847 -0.8922433518900208 -0.19053444612610496
0.04286853224039078 0.13806384801864624 0.011951402761042118 0.9519868786652085 -0.2125735063539111 0.22030317121112344
-0.08527170866727829 0.22396600246429443 0.01782871223986149 -0.9490230329192637 0.25987762825328115 -0.17837853380429983
0.10465337336063385 -0.13254830241203308 -0.018192831426858902 0.8674514014381327 0.3274031549222625 -0.37461345449672323
0.00036613186239264905 0.2834452688694 -0.021020911633968353 0.6928793300908005 0.03597857921136416 -0.7201553830742746
0.11664582788944244 -0.19022925198078156 0.03516114503145218 0.4361911797835958 -0.6612441738009446 0.6103223716146255
0.011124055832624435 0.09479722380638123 0.19359348714351654 -0.09914680607412528 -0.8128821804394287 0.5739272354308863
0.001186510780826211 0.2672975957393646 -0.030294295400381088 0.6680190138207166 0.6748558789307949 -0.3135604245540907
-0.1164352223277092 -0.10692977905273438 0.04989748075604439 -0.6516389745803803 0.1697075455946058 0.7393010183789046
-0.03142450004816055 0.24326880276203156 0.04955344647169113 0.48550759233512736 0.5939502572614197 0.6414869208986581
0.02460838109254837 -0.19379954040050507 0.006439108867198229 0.09334411972169183 -0.9940571232935469 0.056011703622910046
0.016316017135977745 0.03773654252290726 -0.04545074328780174 0.311635643096432 0.22641387194107795 -0.9228325874959784
0.02221163548529148 0.1019292101264 0.20678018033504486 -0.6285521772917588 -0.11244291403046437 0.7695964861576012
-0.08602846413850784 0.20119598507881165 0.08042842894792557 -0.9922790174171432 -0.09776240552257016 0.07632079441482102
-0.09415258467197418 -0.05135275050997734 -0.040001723915338516 -0.48532355941324273 0.17119652374528785 -0.857410515993354
0.03521376848220825 0.3031364381313324 -0.013845236971974373 0.43253266876944546 -0.4363292698863285 -0.7890071347507859
-0.044830359518527985 -0.14105308055877686 -0.07000826299190521 -0.2699089550974435 0.24676690142026578 -0.9307283450726357
-0.07165980339050293 -0.1703394651412964 0.04650748521089554 0.2719164767918537 -0.520635503750195 0.8093207657560049
0.05597648769617081 -0.280631959438324 -0.023847375065088272 -0.7634977048430182 0.31105768940991707 -0.5659632219132328
0.0880177766084671 0.16520534455776215 -0.18209290504455566 -0.310613696035267 0.28378331154053404 -0.9071858486144936
0.08727187663316727 0.17250007390975952 -0.17880061268806458 -0.24046976974380554 0.47993733745290007 -0.8437028161372833
0.04120999574661255 0.24593621492385864 -0.053019825369119644 0.7587929242187545 0.6156302979427798 0.21267965208368114
0.020328819751739502 -0.3509730398654938 -0.029797248542308807 -0.9026577685789372 0.3876837036955581 0.18684297876288708
-0.08925782889127731 0.1325598657131195 0.11147228628396988 -0.7444181823158671 -0.3390902730040132 -0.5752037522405467
-0.12192245572805405 -0.24085359275341034 -0.022876886650919914 -0.7771021002013146 0.39875955021066245 -0.48693238440105424
-0.03490852564573288 -0.061206892132759094 0.06656697392463684 0.3587852925099648 -0.030192995050270698 0.9329316678773603
-0.1089908629655838 -0.3195793628692627 -0.04613272473216057 0.014467559374359583 -0.05010196858551008 -0.9986393155036537
0.00862021092325449 0.20257554948329926 0.04346471279859543 0.6846519579956163 0.5202485019375812 0.5104832932079868
0.011279779486358166 -0.18898752331733704 -0.05886739492416382 0.345849303308215 -0.8464805268349767 -0.4047949815528881
0.0107756732031703 0.12608949840068817 0.0517861545085907 0.623050853114231 -0.052578906005023365 0.7804121302728091
0.11437305808067322 -0.15680639445781708 0.0618596076965332 0.32295247344082945 0.08287442110328114 0.9427796827601062
-0.027282999828457832 0.06803961098194122 0.06496864557266235 0.08203827134298268 -0.005025361089138243 0.9966165098878199
-0.036663591861724854 0.3197424113750458 0.022976886481046677 -0.7154514763335058 -0.29601179152794094 0.6328555951310108
0.05211145430803299 -0.01896863430738449 -0.030427223071455956 0.8647079192902515 0.37964360537542463 -0.32886311318582534
0.036758601665496826 0.20454539358615875 0.004994068294763565 0.7559061726382268 0.5114334603982417 0.4087073204048432
0.04900125786662102 -0.09461627900600433 0.048006247729063034 0.2881974129282264 0.20914410125357397 0.9344522438799707
-0.08697142452001572 -0.2750241756439209 0.00017112887871917337 0.8214740632293618 -0.17988874601142288 0.5411288224627111
-0.022920407354831696 -0.09826280921697617 0.06186247244477272 0.2866560298648317 -0.11362701028793787 0.9512713719413391
-0.01320972666144371 0.39930015802383423 0.010688922367990017 -0.22822908448217832 0.9452913541318135 0.2331002805662599
-0.11806710064411163 -0.06980455666780472 0.04053758829832077 -0.9066352842780859 0.049790487880744805 0.41896702569365996
-0.06150699406862259 0.18459941446781158 0.07119570672512054 0.7324872423935511 -0.6661011408948561 -0.14061191211722582
-0.06317613273859024 -0.19689588248729706 -0.02007809467613697 -0.050267137914670974 -0.7683678658982884 -0.6380313765801627
0.035634156316518784 0.18555237352848053 -0.08439788222312927 -0.01795845514880067 -0.8421494320204087 0.5389451067004613
-0.09133551269769669 -0.17797696590423584 -0.0523943230509758 -0.32365317835186735 -0.7625042952441184 -0.5602105138936653
-0.11674350500106812 -0.04769083112478256 0.033069439232349396 -0.8883652878445684 0.1844617535849799 0.42045329921073443
-0.030880386009812355 0.005506280809640884 0.06605198979377747 0.23346191216358997 -0.04464901353719042 0.9713403117131895
-0.09648603200912476 -0.0025518082547932863 -0.023630663752555847 -0.6154040983657189 0.39734419982546904 -0.6807315054995873
-0.09305237978696823 -0.39791572093963623 -0.03818857669830322 0.8761839265520158 0.03256719584450869 -0.4808753524633148
0.029964281246066093 0.14248667657375336 -0.0401286780834198 0.6958404948185856 -0.2156861762909827 -0.6850441439262153
0.10785789042711258 -0.1371769905090332 0.058546774089336395 0.20348123401588494 0.3008589453074096 0.9317077237159118
0.009363245218992233 0.3530513346195221 0.041050463914871216 0.05151257237324109 -0.027221111412944414 0.9983012901829466
0.17038753628730774 0.13686883449554443 -0.2127572000026703 0.17467874035245676 0.6271095015929762 -0.7590922280465583
0.08621469140052795 -0.20392781496047974 0.025847656652331352 -0.3082807341388698 -0.30166846360873434 0.9021968338576373
0.10780119150876999 -0.4225996434688568 -0.012088081799447536 -0.30334573416408 -0.8970925871076052 -0.3212573045411405
-0.029324181377887726 0.20632539689540863 -0.05883004516363144 -0.5902100177381605 0.023061231763064658 -0.8069202652995466
-0.046192727982997894 0.10415317118167877 0.06122119352221489 -0.37347610494539846 0.0017535639178602358 0.9276381428382512
-0.0706779807806015 0.057202763855457306 -0.01230265386402607 -0.704643940964195 0.015584993286432954 -0.7093898959293895
0.006283377762883902 0.03545927256345749 -0.048985496163368225 0.24683680373494507 0.23667157258544771 -0.9397117425316379
0.005216000601649284 0.29917991161346436 0.030966753140091896 0.039467809944312 -0.47122716474513016 0.8811283965373411
0.034207381308078766 0.17079026997089386 0.03348619490861893 0.7615498970211331 0.06500236952708081 0.6448383102010663
0.04051358997821808 0.24609917402267456 -0.08279535174369812 0.37900480491446215 0.8598886535966108 -0.34197494245566923
0.012686549685895443 0.2228507250547409 -0.08938078582286835 -0.6223980093420455 -0.02087986968933133 -0.7824223597321435
-0.11751732975244522 -0.19263499975204468 0.027865294367074966 -0.20212108157234265 -0.9718982615213515 0.12066829590162101
-0.08235321938991547 -0.29127225279808044 -0.024311430752277374 0.9796971955561853 -0.19988447415674448 0.015479082996980779
-0.07150838524103165 0.17186981439590454 -0.014089123345911503 -0.7774286886327894 -0.13475833067295856 -0.614365385096637
0.01135103590786457 0.11807382106781006 0.18413373827934265 0.29351053324937876 0.94590944630135 -0.13822766101449763
0.018186800181865692 0.09956486523151398 0.20279498398303986 -0.7315230881459134 -0.5023597586101645 0.46098659897941013
-0.1348593682050705 -0.17108233273029327 0.048087336122989655 -0.4111531382212539 -0.27511680406293426 0.8690591700528862
0.04627604782581329 0.229851633310318 -0.1031927764415741 0.44063473112120743 0.6875411649351274 -0.5771725740620298
-0.014102654531598091 0.04671728238463402 0.06153213977813721 0.29724427217288635 0.005259461787703185 0.9547869818562226
-0.09653324633836746 0.014300741255283356 0.046045009046792984 -0.8199453684735301 0.1718413809033805 0.5460404129073473
-0.04883377254009247 -0.0674993172287941 0.07057483494281769 0.06899969115792545 -0.030117466321039434 0.9971619631948022
-0.06116323545575142 0.21058088541030884 -0.0251433327794075 -0.7545029342994019 0.1438342521483722 -0.6403413386956298
-0.08868025243282318 0.20840615034103394 0.025475915521383286 -0.9972063150577016 0.06124263816472797 -0.042765692788310626
-0.06408622860908508 0.24145016074180603 0.08090420812368393 0.08402707847848717 0.7346442369701625 0.6732290064821167
