ply
format ascii 1.0
comment VCGLIB generated
element vertex 393
property float x
property float y
property float z
property float nx
property float ny
property float nz
element face 0
property list uchar int vertex_indices
end_header
0.05238284915685654 0.19598017632961273 -0.14924466609954834 -0.18706549898444727 0.7978699054583978 -0.5730707749078706
0.06615541875362396 -0.1284991353750229 0.05218200013041496 -0.045535886655543346 0.32673753537731387 0.9440175136098123
-0.05047725886106491 0.2582519054412842 -0.012427338398993015 -0.8301970139046015 0.3608540928950074 -0.4249202769282777
-0.13046124577522278 -0.15120473504066467 0.05759803205728531 -0.28186331278483395 0.012422017856255555 0.9593741534867081
-0.022453751415014267 0.09588993340730667 0.18377861380577087 -0.7156231963687515 -0.3920754132824221 0.5780660093089622
0.08572733402252197 -0.10260725021362305 -0.021551907062530518 0.7089938385594896 0.08195721509296171 -0.7004361154158789
0.08307653665542603 -0.41297250986099243 -0.03555102273821831 0.7521014599314645 0.5843768046969439 -0.3047082934564627
0.0382852777838707 0.05850972980260849 0.0018685563700273633 0.9905882595746942 0.07005406117218206 0.11758966156113679
0.040288060903549194 -0.35909661650657654 -0.00872907042503357 -0.28395913853833205 0.08814569274405833 0.9547761750752051
-0.004575786646455526 -0.16401392221450806 -0.04942353069782257 -0.10707433772998337 -0.3549238805147154 -0.9287433042773776
0.019525645300745964 -0.16092877089977264 -0.0538439080119133 0.12027053691262705 -0.18943016452555825 -0.9745004929288483
-0.12906579673290253 -0.2962331771850586 -0.01194192934781313 -0.9656796803749642 0.056211215659239575 0.253580468776713
-0.06494860351085663 -0.2041139006614685 -0.03965530917048454 -0.2728448296720104 -0.79548468669776 -0.5410728344230732
-0.12387067079544067 -0.12802980840206146 -0.00906490907073021 -0.9957522253690142 -0.004375939156916719 -0.09196932547948189
0.04469660669565201 -0.17738592624664307 0.052174657583236694 -0.2152643434546741 -0.5073639239672622 0.8344118354227547
0.02484722249209881 0.08937767893075943 0.20737415552139282 -0.2222902792367394 -0.651897220443585 0.7249945142790948
-0.07150163501501083 -0.09084111452102661 0.06911276280879974 -0.17204106949818657 -0.03409777522451462 0.984499472895064
-0.09068096429109573 -0.26402416825294495 -0.03765895962715149 0.37122620631464975 0.22398893100336398 -0.9011215581336424
0.03739625960588455 -0.14863257110118866 -0.04112112149596214 0.7051116564567235 0.13330186490569193 -0.69645399326985
-0.016815586015582085 0.1376628577709198 -0.05445357784628868 -0.09812752636764913 -0.19761131920375663 -0.975356732222379
-0.07763613015413284 0.1165362298488617 0.03391633182764053 -0.9376652473244673 -0.09056319373803544 0.33553269870448205
-0.011458882130682468 0.3671761751174927 0.04324851930141449 -0.11350463937577498 0.1156257426680174 0.9867863925250717
-0.09914209693670273 -0.1608157902956009 -0.05993913114070892 -0.25974616150947855 0.23119869808713284 -0.9375921787130622
0.05267857387661934 -0.0478411540389061 0.024768419563770294 0.5290811354077709 0.4940330326911808 0.6899308043315495
-0.06665917485952377 0.10237673670053482 0.16318829357624054 -0.39615607588042406 -0.3551042792432276 0.8467356815477728
-0.06435735523700714 0.26691073179244995 0.020048724487423897 -0.6036782037015679 0.7648021197913127 -0.22505631281606575
0.002510450314730406 0.26466476917266846 -0.013407540507614613 0.8922381669792152 0.4479848053708182 -0.05675092547650849
0.025042738765478134 -0.004452661145478487 0.03471711650490761 0.7234912584064612 0.06609725465610987 0.6871619546630625
0.07167045772075653 -0.28926220536231995 0.007460496854037046 0.03400203092053022 -0.35135161654906855 0.9356259420525042
0.12536533176898956 0.14563871920108795 -0.18054531514644623 0.5435994935590568 -0.16652447022439712 0.822659827279065
-0.07802170515060425 0.168340265750885 0.1187758818268776 -0.17111669202189425 0.5058327612581076 0.8454893821624743
0.0848889872431755 0.15390218794345856 -0.1960473656654358 -0.5904615803795766 -0.16696085682364292 -0.789606987294545
0.12006350606679916 -0.16808384656906128 0.0016477872850373387 0.6535288369684518 0.06529325303890203 -0.7540801352364751
-0.04766587167978287 -0.10960924625396729 -0.05482610687613487 -0.1158645773129961 0.025584610813482955 -0.9929354598429867
-0.005497808568179607 0.0873837098479271 -0.04470597952604294 0.09783562523290952 -0.04456739756841677 -0.9942041729490299
-0.06975553184747696 -0.22322893142700195 -0.025078294798731804 0.6245789855078815 -0.4621590781953518 -0.6295316332826878
-0.03142961114645004 0.08122754096984863 0.06513795256614685 -0.03662003099786327 0.037781003399146834 0.9986148252013233
-0.005992235615849495 0.23679693043231964 0.028216537088155746 0.7033305921872304 0.37230145436760825 0.6055722130095829
0.11775289475917816 -0.1049441397190094 0.0066434782929718494 0.8867613826988529 0.45050160094341557 -0.10345316670570388
-0.08482713997364044 -0.04156823083758354 0.06351463496685028 -0.42110781105107226 0.056096229677945794 0.9052742261258153
-0.03577546030282974 0.2807881236076355 -0.01762077398598194 -0.5964921448787776 0.4558306106876941 -0.6606175712604072
-0.02262558788061142 -0.14237052202224731 -0.054672788828611374 -0.10671820443705565 -0.24481800887447458 -0.9636780413460029
-0.07035743445158005 0.15416625142097473 0.05798766016960144 -0.6241670024362703 -0.39785337613981064 0.6724048216393718
-0.08960790187120438 0.17434479296207428 0.0826171338558197 -0.9729961554107162 -0.12113843259945502 -0.19647890905466922
0.06161737069487572 -0.24884669482707977 -0.025427138432860374 -0.6895508623197387 0.3087330897701765 -0.6551362358739324
-0.07942890375852585 0.1295294314622879 0.150241419672966 -0.3763949414778227 0.6040341458084174 0.702473913200627
-0.06899449229240417 -0.041133228689432144 -0.04797853156924248 -0.3689886175529189 -0.051526454185888484 -0.9280045391243599
0.038801003247499466 0.15167731046676636 0.015797272324562073 0.7986934924949539 -0.25034828703328865 0.547187755917209
-0.09036839753389359 0.041860781610012054 0.00950981117784977 -0.8774083469942734 0.40827349745576735 -0.25192725914440495
-0.0445367768406868 0.3315126299858093 0.02515617571771145 -0.6984098678659587 -0.293210900396262 0.6528790273521332
0.08503299206495285 -0.24475941061973572 0.02125781774520874 0.09853577870880428 -0.307395045768101 0.9464665795216842
-0.05680733546614647 0.09851236641407013 0.05793023109436035 -0.4548425477245833 0.009284888209762048 0.8905234683209323
0.1382148712873459 0.14417614042758942 -0.2211524397134781 -0.22892326068991128 0.18163337729479803 -0.956349024659713
-0.06880614161491394 -0.1369670033454895 -0.060693271458148956 0.06677502755784036 0.1638174223087886 -0.9842280974666155
-0.12336765974760056 -0.35215234756469727 -0.015521874651312828 -0.7941369298790628 -0.23433463766376977 0.5607439827525983
0.04023342207074165 0.23072612285614014 -0.0453784242272377 0.9361357080786963 0.27147878008216264 0.22349319458341174
0.002455794718116522 0.17732210457324982 0.06931273639202118 0.6210949728767364 0.24097137503417565 0.7457706290015615
0.007349635008722544 -0.15405739843845367 -0.054008033126592636 -0.024648345800678876 -0.17302771324527344 -0.9846084853881778
-0.036323681473731995 0.12362392991781235 0.06571761518716812 -0.052105671666711435 -0.13512501495468823 0.9894575429565717
-0.05238991603255272 0.3439529538154602 0.020985839888453484 -0.7834630914897579 -0.10219208578035958 0.6129782719454018
0.04053942486643791 -0.1890457570552826 0.04019377753138542 -0.0008377299749356894 -0.8091085492757982 0.5876586200314793
-0.026850838214159012 0.0959126204252243 0.15284612774848938 0.4666859768177666 -0.3913642085572799 -0.7931193197129803
-0.05462590977549553 0.2369835078716278 -0.03079880401492119 -0.7896523577461684 0.3796491181884431 -0.48199139096528987
0.08961302787065506 -0.25005850195884705 0.018891869112849236 0.22759641705827469 -0.31074552962660057 0.9228418536018614
0.0019191766623407602 0.3856218457221985 -0.025853540748357773 0.2031760272358925 0.6130074736509175 -0.7635059523047345
0.033218007534742355 -0.3763073980808258 -0.048261791467666626 0.019918424758179905 0.011549505952493787 -0.9997348974940337
0.08078024536371231 -0.1835860162973404 0.04712270572781563 0.16210767010511593 -0.7761978363810365 0.6092930510768105
-0.05601444095373154 -0.0364353209733963 -0.05380864068865776 -0.33994867419792346 -0.06471249779643255 -0.9382148962471343
-0.07730632275342941 -0.2166278064250946 -0.028555018827319145 0.2904501246659619 -0.4043614278478608 -0.8672546112592119
0.08732813596725464 -0.42771467566490173 0.007221716456115246 0.24422994428517503 0.9535126815405095 0.17653696625887516
-0.014812199398875237 0.049988631159067154 -0.04748723655939102 -0.09130452192594948 0.1450665631624641 -0.9852000692895351
-0.011265160515904427 0.20227599143981934 -0.07125424593687057 -0.41910370179015743 -0.3291609773224658 -0.8461708681784702
-0.002095435746014118 -0.09667681902647018 -0.05806152522563934 0.09055749257253044 -0.027976119357911212 -0.99549820556576
-0.09615183621644974 -0.09103825688362122 0.061442337930202484 -0.4047614589897914 0.1999170905279705 0.8923011365179846
-0.01616988703608513 0.14005403220653534 -0.05440962314605713 -0.0817395134270198 -0.20171981427841892 -0.9760265203733935
-0.05962245538830757 0.09196840226650238 0.13774247467517853 0.09559515053109359 -0.8574894609346893 -0.5055426703858673
-0.08071958273649216 -0.23164452612400055 -0.028315875679254532 0.37495570635503384 -0.05177615451696415 -0.925595726057134
0.05499732494354248 0.1622934639453888 -0.12789565324783325 0.22704484914924788 -0.8653111396642571 0.446863813759561
0.04328802973031998 0.027082988992333412 -0.009937168098986149 0.995253493406905 0.09603166236340323 0.015760827550388656
-0.0642651915550232 0.23626531660556793 -0.018519435077905655 -0.7371299276088941 0.5133373974147082 -0.4394589699150544
-0.11399085819721222 -0.17229454219341278 -0.0349326953291893 -0.892624043208491 -0.383820881600301 -0.23643994656930084
-0.1257358193397522 -0.15966324508190155 -0.013579427264630795 -0.9116884125952642 -0.013903154482421897 -0.4106469781149804
-0.09290662407875061 0.21031470596790314 0.033605579286813736 -0.9975740354236784 0.06854580283871016 -0.012145647850743324
-0.07772202789783478 0.10963819921016693 0.1178698018193245 0.2421765473477579 -0.6276826772393326 -0.7398411833686896
-0.05136601999402046 0.25169673562049866 0.05442678928375244 0.4340035315278005 0.7053115233071007 0.5605145758244068
0.007141438312828541 0.014310477301478386 -0.056483931839466095 0.22943944253933157 0.24369509696154742 -0.9423217295192459
0.04145175591111183 0.301017701625824 0.012881224043667316 0.9302568863355282 -0.3115093948817935 0.19386599063710785
-0.08805353939533234 0.17886985838413239 0.10357873141765594 -0.8478319269405414 0.3402208331911176 0.4067318629306417
0.04099344462156296 0.18148885667324066 -0.15051954984664917 -0.8057901656697907 0.26577680804119896 -0.5292115807664106
0.0187011007219553 0.16923245787620544 0.04656413197517395 0.8111969393822106 -0.040297568262910186 0.5833829201553903
-0.0749741718173027 -0.1948869526386261 0.024232104420661926 0.29643664188063695 -0.6291370788529084 0.7185484349457316
0.03981141373515129 0.3059220016002655 0.019075220450758934 0.9081293274005933 -0.21837578411991104 0.35722981625972944
-0.029544871300458908 -0.12080108374357224 -0.05762212723493576 -0.13207106817260728 -0.10680273528207414 -0.9854696386434307
0.04417366161942482 -0.06701261550188065 0.0400313064455986 0.3351280641721657 0.36665473323890835 0.8679017727817601
0.050756365060806274 0.16250048577785492 -0.0006685252883471549 0.9544290040127953 -0.28402148837581664 0.09163553044496284
-0.049302924424409866 0.08734747022390366 0.15423010289669037 -0.08203413375037809 -0.9082797009840947 -0.41024186241785293
0.04964447021484375 0.16935095191001892 -0.11766863614320755 -0.010568032469357535 -0.8905496160933566 0.4547633428121729
-0.04500193893909454 0.015698866918683052 -0.04681817814707756 -0.4193779666907969 0.2875044294388076 -0.8610826465022732
0.08764076232910156 -0.14529268443584442 -0.03205833211541176 -0.10287281273929787 -0.3622930526660865 -0.9263697579201264
-0.0878097265958786 -0.40446704626083374 -0.021117011085152626 0.9718139615700411 -0.03734092713380328 0.23277302089875201
-0.1098848506808281 -0.30220383405685425 0.006952247582376003 -0.24374408091264874 -0.24175181488191802 0.9392256826883234
-0.037465475499629974 -0.16409721970558167 -0.05216710641980171 0.39737328413497863 0.007101461267719456 -0.9176295779363504
-0.006971009541302919 0.04968574270606041 -0.04761693999171257 0.026259285687217703 0.1554390141687907 -0.9874964115324326
0.021108774468302727 0.1560198813676834 0.03919011726975441 0.7724592276918 -0.1347760642876958 0.6205982227245795
-0.10039793699979782 -0.3954756259918213 -0.006535535212606192 -0.23513047262124182 -0.8161948215707303 -0.527768580048145
-0.12483187019824982 -0.3014407753944397 -0.03505559638142586 -0.8534058555178624 0.02480718885020783 -0.5206563637843828
0.08347436040639877 -0.419498473405838 -0.028376052156090736 0.4359495730121464 0.804375801969376 0.40364283592880795
0.02162352204322815 -0.3441723585128784 -0.03791608288884163 -0.7912815102893088 0.4438446130011428 -0.42056572730565694
0.02172423154115677 -0.09549663215875626 0.0523461289703846 0.13299744713562714 0.09164075338765036 0.9868706355819642
0.04571550339460373 0.09811866283416748 0.17876434326171875 0.16321000509208966 0.2435772220331433 -0.9560505379656752
-0.11650156229734421 -0.046691663563251495 0.02893674001097679 -0.9002886970685267 0.26143433804084926 0.3480407286853047
-0.06488007307052612 -0.03064553625881672 0.06904475390911102 -0.16816297408381306 0.09455797087968357 0.9812135365405452
-0.0534064844250679 -0.16419006884098053 -0.060112934559583664 0.3424012254100928 0.07043896855108876 -0.9369096821717264
-0.0996091216802597 0.00967483688145876 -0.010039194487035275 -0.8479238892610345 0.3686871416665539 -0.3809132047989245
0.061947714537382126 -0.18023017048835754 -0.003118694294244051 0.33602234935033853 -0.4127370333097242 -0.8466032849403353
-0.00906900130212307 -0.1400766670703888 0.04716018587350845 0.07193320637555008 -0.3456175355835956 0.9356143077773312
-0.012519079260528088 -0.20923876762390137 -0.01386057399213314 0.08794327101844192 -0.9879675391737267 0.12722469344269538
0.007811895105987787 0.09654372930526733 -0.042022671550512314 0.3558262447887016 -0.08879205544964212 -0.9303244887718471
0.07412722706794739 -0.10609417408704758 -0.03773724287748337 0.4437524096999822 -0.01058891647504615 -0.8960868672920854
-0.06848230957984924 0.023647643625736237 0.06346429884433746 -0.272721153356884 0.14520321348761583 0.9510726572163458
0.0576767697930336 -0.045336391776800156 -0.037173766642808914 0.6796984250625675 0.2107525147258092 -0.702562046017441
-0.10571316629648209 -0.18732111155986786 -0.06460539996623993 -0.7210642989389858 -0.3834246738034999 -0.5771063994744026
-0.05900050699710846 -0.11752738058567047 0.06834370642900467 0.08156901490247029 -0.15155891026895887 0.985076846000314
-0.010295232757925987 0.22743138670921326 0.04103102907538414 0.640022590869738 0.5060448409995596 0.5781779155883753
-0.11186965554952621 -0.1555246263742447 0.061626043170690536 -0.23922051096189795 -0.19528291702002673 0.9511246655698073
0.019274309277534485 -0.17111104726791382 -0.050228528678417206 -0.04956188127157173 -0.3629285196895643 -0.9304979900680949
0.02160147950053215 -0.37460440397262573 -0.04983118548989296 -0.3362046131857582 0.06573862272630514 -0.9394918262308957
0.03469640761613846 -0.17474068701267242 0.05281873792409897 -0.14120324656185265 -0.33625005128335145 0.9311270300943563
0.07971864938735962 0.16103188693523407 -0.1917763650417328 -0.5703649230077665 -0.029207821000822386 -0.8208719496941824
0.03881628438830376 0.36630749702453613 0.028561552986502647 0.7409243466909464 0.21435784647447273 0.6364603885045955
-0.05650585517287254 0.0008123371517285705 -0.0471315011382103 -0.4078401655510449 0.28942326527837475 -0.8659679976066668
-0.019024813547730446 -0.16032244265079498 -0.048260949552059174 -0.020049160927700593 -0.3079066102666075 -0.9512053145878774
-0.04261139780282974 0.25390058755874634 0.044806644320487976 0.35950039104936865 0.5945317073771139 0.7192298087250034
-0.12691277265548706 -0.32214775681495667 -0.013012472540140152 -0.9158252279367654 -0.1337072847661286 0.3786641174907406
-0.03720267862081528 0.3596700131893158 -0.034607380628585815 -0.3162213944552667 0.08290170740636017 -0.945056261075433
0.14487618207931519 0.1366892158985138 -0.19549362361431122 0.22315791701597418 -0.35871047468991984 0.9063814535949111
0.06753553450107574 0.08486174792051315 0.20889155566692352 0.5262549209347852 -0.3262983657957694 0.7852293516361532
-0.11664123088121414 -0.21988190710544586 0.007095330860465765 -0.8251182412210152 0.1413236532768055 0.5469986407924939
-0.07193822413682938 -0.22288182377815247 -0.026047972962260246 0.6159650206807336 -0.4082634445231229 -0.6737269871126573
-0.10655899345874786 -0.32095804810523987 -0.04488217085599899 0.06493783821961405 -0.004824650714934648 -0.9978776477669205
0.09048391133546829 -0.17845353484153748 0.05127152428030968 0.16050501254758157 -0.7553498834040229 0.6353618611379109
-0.05336742475628853 -0.10748647153377533 0.06910180300474167 0.06521208122215066 -0.11549013828779298 0.9911656836376763
-0.08622238785028458 0.1225505843758583 0.14886493980884552 -0.639718417911127 0.26254486030876784 0.7223783926106415
0.036536503583192825 -0.18984147906303406 -0.016804546117782593 0.4834685245301241 -0.874488725882215 -0.039085215792741435
0.07802305370569229 -0.4203200340270996 -0.013467660173773766 0.32996644330961244 0.9067747040858811 0.26245339075646784
0.009843743406236172 0.2915271520614624 -0.008386521600186825 0.4696479706517489 -0.5554097605097209 -0.6862585384483232
0.19132846593856812 0.09231609851121902 -0.2365604192018509 0.7654830950099997 -0.13758694578733974 -0.6285741512366093
-0.14051516354084015 -0.16756176948547363 0.014436484314501286 -0.8565815979112387 0.028817732667146056 -0.51520627364557
-0.11796721071004868 -0.19304794073104858 -0.013113673776388168 -0.7530372210999446 -0.4123531872745681 -0.5127375474671015
-0.053016889840364456 0.36554187536239624 0.017304832115769386 -0.8155716183114423 0.1393979708789242 0.5616147621988705
-0.10183992236852646 -0.3650987148284912 -0.01228256430476904 0.5688678603389081 -0.0928522926082874 0.8171706120699749
0.08244611322879791 -0.1529303938150406 -0.02073395438492298 -0.42339409842954906 -0.4731955419400326 -0.7725434722416004
0.03040824644267559 0.31657594442367554 0.03430510312318802 0.5947569779410586 -0.10885691903436485 0.7965012921325143
0.043792061507701874 -0.1745297610759735 -0.03886742517352104 0.7061210093371628 -0.2127404206047836 -0.6753774008756633
-0.1353873759508133 -0.14826643466949463 0.010693919844925404 -0.9013839865092279 0.1828228204155749 -0.392533724920581
0.11306042224168777 -0.16895271837711334 0.05767548829317093 0.44273985182715614 -0.3317372630344439 0.8330256970337014
-0.001970787765458226 -0.09871185570955276 -0.057961415499448776 0.09877507293855779 -0.012536401712001509 -0.9950308154012608
0.017891736701130867 0.0910654217004776 -0.03853879123926163 0.6149022481086478 0.0010655767661080413 -0.7886026184442242
-0.0001980581582756713 0.12450657784938812 0.056737370789051056 0.5099017962539513 -0.13660257705342466 0.8493173106203341
-0.0835694819688797 0.2257307767868042 0.003870222484692931 -0.8076397335025671 0.2964862648147377 -0.509719487212435
-0.11234277486801147 -0.4224337637424469 -0.055880654603242874 0.0549991810382367 -0.9712705851081991 -0.2315351821834
0.018068842589855194 0.18936946988105774 -0.10508508235216141 -0.8999594813344158 -0.4324062189873306 0.05565782727856194
-0.10049768537282944 -0.1000172421336174 -0.046503178775310516 -0.5335177622902799 0.22893647122861094 -0.8142155055402494
0.19509173929691315 0.09672719985246658 -0.23227867484092712 0.84205148698143 -0.06024204928515596 -0.5360225636764626
-0.045692067593336105 -0.11157684773206711 -0.05526328831911087 -0.10908851327303262 -0.008099555922810376 -0.9939990409782762
-0.057529229670763016 0.09742126613855362 0.057489216327667236 -0.4548425477245833 0.009284888209762174 0.8905234683209322
-0.05914227291941643 -0.14566293358802795 -0.059547845274209976 0.28506916915305813 0.11493401043247325 -0.9515911632861527
-0.08724961429834366 -0.31654563546180725 -0.0215605515986681 0.9464175171436583 -0.3166315985243497 0.06354773056174558
0.11697593331336975 -0.20749276876449585 0.02545718103647232 0.6392089828473642 -0.17806118568252768 0.7481350749701355
-0.03045801818370819 -0.08836398273706436 -0.05689273774623871 -0.1321129804277228 -0.00014840699179149291 -0.9912346535396496
0.09899787604808807 0.13936829566955566 -0.17266102135181427 0.12500439062482854 -0.8785356079549438 0.4610304630713167
-0.05544304475188255 0.3672311007976532 0.011662181466817856 -0.8450851969035529 0.1858488698212019 0.5012895446352988
0.06065802648663521 0.07726787030696869 0.21094147861003876 0.3728563028884195 -0.6308038147085784 0.6804885926637453
-0.06390982866287231 0.2660043239593506 0.035164639353752136 -0.3955669426008525 0.8703472699843944 0.2932957953195469
-0.12412422150373459 -0.324825644493103 -0.03768650069832802 -0.8211159500754344 0.024197487127846883 -0.5702482601011726
-0.06959811598062515 0.2062932848930359 0.10048341006040573 0.12324712385587583 0.3769310740421043 0.9180049628856699
0.0010514084715396166 -0.058884017169475555 -0.06038449704647064 0.11847112337586119 -0.10069869295788306 -0.9878382287412426
0.0083438316360116 0.25803592801094055 -0.025487184524536133 0.7417257276592369 0.6704230198113741 0.019388641916681434
-0.041693683713674545 0.021696846932172775 0.0669475570321083 0.01755862397417625 0.09578771618839928 0.9952469081346318
-0.06276588141918182 0.056143198162317276 -0.021308958530426025 -0.6859766667642935 0.11235264218925778 -0.7188969998880523
-0.1264277994632721 -0.39982783794403076 -0.0347764678299427 -0.9843508219930062 0.06519783416543753 0.16371530674261742
0.09598160535097122 -0.08300761878490448 -0.014232744462788105 0.754266818481861 0.17588969689233505 -0.6325696649890618
-0.07967021316289902 0.1817876547574997 -0.011797294951975346 -0.7519487896803346 -0.12678248388846483 -0.6469151563206346
-0.011075719259679317 0.1087421104311943 0.18480141460895538 -0.13156739000118728 0.6108037883379086 0.7807744578560026
0.04745190218091011 0.17688509821891785 -0.10376036912202835 0.21658478368990486 -0.7371188616208425 0.6401146891899845
-0.08104883879423141 -0.4219871163368225 0.02521299198269844 -0.4992942827676503 -0.6835341543696936 -0.5324342954822178
-0.04998880624771118 0.35224759578704834 -0.027919357642531395 -0.602352427556861 -0.07977909390682615 -0.7942334979033322
-0.06837894767522812 0.0220698993653059 0.06364665925502777 -0.272721153356884 0.14520321348761583 0.9510726572163458
0.18312384188175201 0.09921493381261826 -0.24516765773296356 0.32225838116088296 -0.015575153975234776 -0.946523613202658
-0.015847094357013702 0.22872617840766907 0.045770131051540375 0.578706810816484 0.5343570453892508 0.6160852012161018
0.03596256300806999 0.07545306533575058 -0.0011489226017147303 0.9909612408886954 0.11983176271411963 -0.06030064428481613
-0.007019920740276575 0.25780442357063293 0.02121230959892273 0.7834997934109196 0.04417382998380506 0.6198199306811684
0.04306977987289429 -0.33014994859695435 -0.010799257084727287 -0.42221683893373857 -0.007047699248653732 0.9064674681730736
-0.06012773886322975 -0.13282674551010132 -0.05842990800738335 0.27109103158767967 0.07827098187741792 -0.9593660959136886
0.041838034987449646 -0.37891504168510437 -0.04498010873794556 0.3686797100598473 -0.13856457126474447 -0.9191708932404271
-0.12397004663944244 -0.19096927344799042 0.011683367192745209 -0.4885113193378723 -0.8557431998070631 -0.1704707214237689
0.19442351162433624 0.10300520807504654 -0.23678116500377655 0.7919934303482978 0.13012059885227942 -0.5965023353176919
0.08857487887144089 0.1572435051202774 -0.1547272801399231 0.5599276313304381 -0.1941268012821299 0.8054786357791581
0.07144057750701904 -0.3219010531902313 -0.029058177024126053 0.7543926317618528 -0.3579833665577864 -0.5502178354173728
-0.01732988841831684 -0.010337337851524353 0.06001424416899681 0.42292733586135406 -0.09327117848251185 0.9013506286932411
-0.01979869231581688 0.3341105878353119 0.04171972721815109 -0.30521610051865034 -0.13115450966740155 0.9432081565476906
-0.0661112442612648 0.2410590946674347 0.0003937289002351463 -0.6340649075347091 0.5091614706802131 -0.5819933760858136
0.08364635705947876 -0.42471039295196533 -0.0013967429986223578 0.2571928617869569 0.9530745978555587 0.15968920679964702
0.03751068189740181 0.17675349116325378 0.023155134171247482 0.761928631543428 0.008379739050681304 0.647606779155223
-0.07298942655324936 0.2562119662761688 0.05445287004113197 -0.18042653110086948 0.9023383629218226 0.3914482669197455
0.026173315942287445 -0.3471054136753082 -0.042653150856494904 -0.599759725278811 0.3125902929180608 -0.736597298872923
-0.042188771069049835 0.3096972107887268 -0.009855737909674644 -0.8182923920495204 -0.3483461112445428 -0.45722264586815775
0.09066864848136902 0.17445996403694153 -0.16004009544849396 0.8238075364249713 0.3893532944008909 0.41200140177988837
-0.03581796586513519 0.023991746827960014 -0.04783666878938675 -0.37135064721595634 0.331953068577862 -0.8671250527311685
0.023623662069439888 0.3514370620250702 -0.021412841975688934 0.5835190900079573 -0.02251294815188403 -0.8117873112840555
-0.12398119270801544 -0.1070251613855362 0.05064801871776581 -0.6349969823326315 0.3310284919622584 0.6979963967941702
-0.017922712489962578 0.02490141987800598 -0.05328750237822533 -0.1280204300922532 0.3158410333345354 -0.9401357408061708
-0.08560595661401749 0.24669110774993896 0.04673561453819275 -0.8697379743996968 0.49131978093191725 0.04648363961788437
0.09789234399795532 -0.11893093585968018 0.046792805194854736 0.3115510980811225 0.5095709147522294 0.8020432632489491
0.0401022806763649 0.007405439391732216 0.011738126166164875 0.938009372939061 0.08398812682405912 0.33628025638008474
-0.05003056302666664 0.2703254520893097 0.03389378637075424 -0.2344022984625825 0.7217235087598732 0.6512839161063287
-0.05136587843298912 -0.20827800035476685 0.006455177906900644 0.43304211043246266 -0.8254983031455093 0.3619766319751646
0.05748544633388519 0.15613143146038055 -0.16392020881175995 -0.5491963792787586 -0.8330808621988168 -0.06602737330212265
-0.09640497714281082 -0.12274039536714554 -0.05464416369795799 -0.3186296991587033 0.22068870541381416 -0.921830575603136
-0.0789065882563591 -0.1898074448108673 -0.06771213561296463 0.029411257138443718 -0.5704032794355669 -0.820838033209163
-0.033384229987859726 0.11962365359067917 0.06494363397359848 -0.01862382429932194 -0.1321769304568765 0.9910511652904032
0.03775164857506752 0.11832920461893082 -0.004003188572824001 0.991001054569457 -0.12656962798716592 -0.04355501249471374
-0.009507165290415287 0.3254409432411194 0.0406082458794117 -0.09985926065428091 -0.2092837761152913 0.9727427353193162
-0.0878964364528656 -0.2083657681941986 0.020866964012384415 -0.0783500756582404 -0.2999204937157081 0.9507412703220967
-0.03575334697961807 0.2207656055688858 0.07240059971809387 0.5412617212548942 0.4237051041560003 0.7262986533213057
-0.108140729367733 -0.04246704652905464 0.04400338977575302 -0.8222516973945461 0.2354607890908345 0.5181316077335077
-0.11011786758899689 -0.2511395812034607 -0.034626271575689316 -0.35356146443315756 0.3206207185607004 -0.8787472023838832
-0.00254928064532578 0.39875033497810364 -0.011117223650217056 0.18517799145475666 0.8949257284285934 -0.40597666444924363
0.01828129030764103 0.38934099674224854 -0.015076272189617157 0.4400764268796456 0.591010758023541 -0.6760466125980393
0.07815732061862946 -0.19221509993076324 0.038474660366773605 0.07487606970112201 -0.751141969053982 0.6558805657372534
-0.10334775596857071 -0.08596803992986679 0.057015564292669296 -0.47117213684243625 0.19620988143512139 0.8599409862836799
0.1746150404214859 0.13383960723876953 -0.22527527809143066 0.25279181032829523 0.8218118914873737 -0.5106089654920765
-0.04938202351331711 -0.09879138320684433 -0.05419471859931946 -0.16057447812602887 0.04081892953125857 -0.9861793203908078
-0.04394274577498436 -0.1131184920668602 -0.055641502141952515 -0.10908851327303268 -0.008099555922810394 -0.9939990409782762
0.04274270683526993 -0.37135598063468933 -0.04367160052061081 0.5389780139335841 0.1113757185935461 -0.8349240383435972
-0.14269769191741943 -0.18814533948898315 0.04757958650588989 -0.5758988553147201 -0.7675498307111384 0.2814387425755343
-0.027808330953121185 0.2333933562040329 0.052010249346494675 0.5641351184009501 0.5664869818769707 0.6007029778107206
-0.06608462333679199 0.2019606977701187 -0.026689816266298294 -0.7446167159371782 0.06599454311651777 -0.664221850457943
0.05279430374503136 0.20638518035411835 -0.09358944743871689 0.94071718303537 -0.10169905121212489 0.32358690413017643
-0.09166508167982101 -0.3109827935695648 -0.04043521359562874 0.7477994019372962 -0.19545382576171466 -0.6345028419615878
0.07381337136030197 -0.30986759066581726 -0.0028548836708068848 0.4990634131148287 -0.44671399902798997 0.7425512189489684
0.07475770264863968 -0.3989158868789673 -0.017227236181497574 0.8845350795215265 0.24824278054592375 0.39493444393047733
0.027718104422092438 0.08687150478363037 0.1811634749174118 -0.1714154619078534 -0.6397291559044557 -0.7492418478066278
-0.02354511059820652 -0.08424456417560577 -0.05812648683786392 -0.07226955520976977 -0.05436224800118116 -0.9959025340775272
-0.010833689011633396 -0.08732885867357254 0.057673487812280655 0.28701500981342076 0.015933941383672007 0.9577935548195048
0.029436148703098297 0.1852618306875229 0.02846178412437439 0.7374925957631281 0.26300438056464504 0.6220396828164346
-0.10932321846485138 -0.19542403519153595 0.0387200303375721 -0.0002157730219681166 -0.8150812078653822 0.5793466820710313
-0.11030501127243042 -0.3620752692222595 -0.009385762736201286 0.18216058114829914 -0.03727090143993635 0.9825621621971653
0.09746839106082916 -0.07894633710384369 0.012860869988799095 0.7691255066521329 0.5717258513196662 0.2856142607607381
-0.06973376125097275 -0.04650561138987541 -0.04823724180459976 -0.3572190659790159 -0.031547868533100785 -0.9334876918803471
-0.03906533494591713 0.36060190200805664 -0.03386577591300011 -0.35171607662023496 0.11243827676900606 -0.9293295622996643
-0.0265628844499588 -0.11123984307050705 0.06126094609498978 0.3186051917227723 -0.13805074977265605 0.9377807431881416
-0.010011759586632252 0.3539598286151886 -0.036942362785339355 0.23256038920686356 -0.0004255028350501624 -0.9725818650989179
-0.09063257277011871 0.21588508784770966 0.010538386180996895 -0.8940465234165276 0.27059428818158626 -0.3570147688406201
0.028955968096852303 0.22794704139232635 -0.10699248313903809 -0.18088759322418685 0.635705100429606 -0.7504390074518686
0.07746289670467377 -0.266330361366272 -0.0354280062019825 -0.0742905242943526 0.1573127155957165 -0.9847505407523124
-0.034985095262527466 0.3793705403804779 -0.030783575028181076 -0.31856300349598315 0.4421482679232941 -0.8384643832483579
0.025679046288132668 0.03551872447133064 0.039184145629405975 0.786173055613754 0.016197914463757845 0.6177941033985014
0.03248070552945137 0.09835842251777649 0.022013645619153976 0.9095784710612406 -0.04318704872733098 0.4132818454809253
-0.005523226223886013 0.26916295289993286 -0.027123304083943367 0.5325791452689622 0.5649229814047649 -0.6302550905033084
0.1963622272014618 0.10455968230962753 -0.2306469976902008 0.9186624173528877 0.22934399107586578 -0.32165306885018563
0.020273474976420403 0.36421501636505127 -0.02500026859343052 0.48845848235358896 0.10150014886361719 -0.8666637357115459
0.03588859364390373 -0.3509847819805145 -0.013420766219496727 -0.4607750683450111 0.14627932208554498 0.8753791728855809
-0.09223194420337677 0.1202506273984909 0.14385513961315155 -0.7199200594089703 0.18891535220352265 0.6678518531548773
-0.1048998236656189 -0.18977902829647064 -0.05720137804746628 -0.722108552641472 -0.5671857952751039 -0.3960549353816795
0.04033122956752777 0.30986160039901733 -0.001561136799864471 0.9086842329722171 -0.2989776689463973 -0.29138517158405963
0.004898435436189175 -0.07478180527687073 0.05214672535657883 0.2727301930621261 0.11479137239526202 0.9552178718051227
-0.09322352707386017 -0.08029302209615707 -0.04483342543244362 -0.4023230204534363 0.24578411481739948 -0.8818879498647497
-0.04129357635974884 -0.1259698122739792 0.06279124319553375 0.26718267115191974 -0.25581770590463737 0.9290698152355471
-0.027523936703801155 0.09756474941968918 -0.045610200613737106 -0.08339623206114241 -0.1291886660056577 -0.9881069562824071
0.017825650051236153 0.12530052661895752 0.04197248816490173 0.700813757933358 -0.009781728875022929 0.7132772213323095
-0.08483017981052399 0.1685285121202469 0.0021650835406035185 -0.8963446270316373 -0.2110974777461712 -0.38987711458960994
-0.09107915312051773 0.23089833557605743 0.035769108682870865 -0.9816498247050628 0.18212609703846652 -0.05651288732718072
-0.015802117064595222 0.26296859979629517 -0.04776497185230255 -0.32157140208302093 0.8193724249883525 -0.47457419075532004
-0.04930191859602928 0.03219665586948395 0.06599956750869751 -0.07821983907997086 0.09207287048383138 0.9926752960032657
-0.0656176209449768 0.15503625571727753 0.08735909312963486 0.7458884478082073 -0.365827080615013 -0.5566156398404202
-0.12667304277420044 -0.1285340040922165 0.00034643663093447685 -0.955946850137923 0.15905585443042403 -0.24671208904873565
-0.08860962837934494 0.182424858212471 0.00020780166960321367 -0.8723777263063159 -0.15620895291929363 -0.463201754824483
0.1832706332206726 0.09384415298700333 -0.20763856172561646 0.26478158166405363 -0.1822950370503308 0.9469209225053065
-0.07638011127710342 0.2108898013830185 -0.01295353751629591 -0.7418192512914602 0.20669775354527817 -0.6379500271124009
0.04552324861288071 0.1946457028388977 -0.014342357404530048 0.9064940124071235 0.4108759079536601 -0.09720902084317809
0.013139676302671432 0.052306853234767914 0.05052988603711128 0.5932195404012333 0.02952825178288456 0.804499011331149
0.06525854021310806 -0.3453582525253296 -0.01928928680717945 0.8403953391830395 -0.5054215444589885 0.19566485702883601
0.10751578211784363 -0.09890684485435486 0.023636339232325554 0.7100139988790254 0.5626723965590129 0.42341456699829355
-0.07924388349056244 0.09437818825244904 0.14286573231220245 -0.29482175243083475 -0.9549512685071071 -0.03388523380882263
0.04237249866127968 -0.30852434039115906 -0.014252149499952793 -0.9802777790311769 0.16236644836374903 0.11266149467961604
-0.005447374656796455 0.2279994934797287 0.03378118574619293 0.6760580546561675 0.46868908856972086 0.568573693543944
-0.005502001382410526 0.2460249662399292 0.02252279594540596 0.7441704279149578 0.2869931111107224 0.6031959286930385
0.014851633459329605 0.08896593749523163 0.046968232840299606 0.7009638205367547 0.0172560694471221 0.7129880436345007
0.10439280420541763 -0.1726885885000229 0.05444296449422836 0.16198569430598903 -0.6276242908538049 0.7614777635430108
-0.08381157368421555 -0.2836284637451172 -0.004768876358866692 0.8846689830138419 -0.2223180535606727 0.4097993088747818
-0.057771116495132446 0.1870848536491394 0.07068981975317001 -0.16279917893315096 -0.23463282057814258 0.9583547708684071
0.023779185488820076 -0.140875905752182 0.05240339785814285 -0.27314499757680016 -0.06725736773572627 0.9596188080608004
-0.04051731154322624 0.008345325477421284 0.06836168467998505 0.08747932731088545 0.016975777992123593 0.9960216816188275
-0.11492393165826797 -0.21630288660526276 -0.014413728378713131 -0.9158076572161884 0.015585012855931876 -0.40131464259166655
0.030655747279524803 0.17122451961040497 -0.04050672799348831 0.7189288957430439 -0.15919005576948905 -0.6766090222645532
-0.03161035105586052 0.31916338205337524 -0.02311965636909008 -0.35021489375618325 -0.3714234731854034 -0.8598803008315967
-0.06632997840642929 0.06517035514116287 -0.0208553709089756 -0.722110031856123 0.02653978497147932 -0.6912689358754788
-0.07682901620864868 -0.24530111253261566 -0.024048708379268646 0.7894471953827404 -0.1896892391181132 -0.5837731736429113
0.05449388176202774 -0.3048773407936096 -0.03895542770624161 -0.33779729503038664 0.30994272709127274 -0.888722956490592
0.05760732293128967 -0.0759638324379921 0.03878441080451012 0.3626600122184108 0.3459442660179635 0.8653324680994205
-0.07337158918380737 0.11728894710540771 0.0432506799697876 -0.8783319174931676 -0.10527731223465946 0.46631505470167
-2.449878229526803e-05 0.2942390441894531 -0.018881425261497498 0.3461033450389695 -0.0303295126554477 -0.9377060281425726
0.007001769263297319 -0.1873818337917328 0.04115957021713257 -0.21056992053729862 -0.7177338073404885 0.663715669820626
-0.017240509390830994 0.23265208303928375 -0.0705493688583374 -0.5989629275876296 0.21201948735752066 -0.7721989046588387
0.08942538499832153 -0.2940864562988281 -0.021645385771989822 0.9196400864145341 -0.2027046547868808 -0.33641185232865967
-0.06301689893007278 -0.06924944370985031 -0.04969749599695206 -0.21256015070272358 0.02170855712810331 -0.9769068127926284
0.102141834795475 -0.16892029345035553 -0.029872646555304527 0.01715765781160541 -0.4975330251044048 -0.8672753332759323
0.06822250783443451 -0.037646930664777756 -0.014746135100722313 0.7973694073048377 0.6025874349919297 -0.033021379198617605
-0.07574190944433212 0.15427027642726898 -0.008960996754467487 -0.8276610829861798 -0.15795780776765156 -0.53854105013024
-0.10085795819759369 0.011925019323825836 -0.0053558023646473885 -0.8496333889409744 0.36644266627770383 -0.37926623462676246
0.0558086596429348 0.15910333395004272 -0.13478492200374603 -0.030962944351986325 -0.9684302930390389 0.24735412590328248
-0.0032694244291633368 -0.193319633603096 0.023248868063092232 -0.10786364311176402 -0.8676023654539883 0.48541896332271794
0.18023692071437836 0.08793147653341293 -0.21180082857608795 -0.24629865526845401 -0.6699004153336998 0.7004073143169536
0.015834730118513107 0.11155789345502853 -0.04188045486807823 0.4887143235912488 -0.15960789509365528 -0.8577200182696688
0.03817005082964897 0.1703539937734604 -0.03239906579256058 0.777043768201942 -0.16337442701424787 -0.6078748052817231
-0.11598700284957886 -0.18139465153217316 -0.022223010659217834 -0.8137279658169991 -0.3281495088811955 -0.4797548305836626
0.04282212257385254 -0.04969792068004608 -0.04938979819417 0.484996917193075 0.0943599053182421 -0.869410259073095
0.003269338281825185 0.1332773119211197 0.055253688246011734 0.642695551802802 -0.0980834545224055 0.7598171251306745
-0.04927130416035652 0.33816060423851013 0.02312447875738144 -0.7505773388152726 -0.22421663392572777 0.6215790854975737
0.0904918983578682 -0.2909224033355713 -0.0025858567096292973 0.5308081949033899 -0.5267900125289194 0.6638787110031363
-0.028158264234662056 -0.11366640031337738 0.06133357807993889 0.30621726027051616 -0.16674698219474016 0.9372440629000358
-0.007451248820871115 0.24290664494037628 -0.07580433785915375 -0.5451642087756123 0.3745725871100358 -0.7499942416150641
0.09287836402654648 -0.2172916978597641 0.026976807042956352 0.00751392811631276 -0.21992472048515294 0.9754879077691277
0.04250605031847954 -0.15276874601840973 0.054468560963869095 -0.1268163167605734 -0.019751257945140446 0.9917295546734838
0.08498415350914001 -0.26700130105018616 -0.03374858945608139 0.328994996852731 0.09965064734007983 -0.9390591251516459
0.027723029255867004 -0.38584068417549133 -0.05048494040966034 -0.15815702953321628 -0.3708560179108193 -0.9151241270934558
-0.09372255206108093 -0.3857985734939575 -0.022741103544831276 0.7894479292419739 0.35802570709460807 0.4985875651026258
0.02800450660288334 0.29510265588760376 -0.008836977183818817 0.5956740993111115 -0.5955443969253917 -0.5389798128878925
0.0518784262239933 -0.2994537949562073 0.00015822250861674547 -0.5733042966801873 -0.220396062757447 0.7891436871248806
0.040360137820243835 0.14169110357761383 -0.013399635441601276 0.8954122459591853 -0.3088498707980384 -0.32070027610584106
0.08585730940103531 0.15672720968723297 -0.15397898852825165 0.6257333693713331 -0.16722762526864388 0.7619006968117361
-0.028041888028383255 -0.0074885571375489235 0.06349266320466995 0.32478417192023273 -0.07784476644725517 0.9425791393866411
-0.06904302537441254 -0.15250636637210846 -0.06269658356904984 0.0983334400006542 0.0840187539000514 -0.991600415273572
-0.024985454976558685 -0.12706343829631805 -0.057214077562093735 -0.11951186940393616 -0.16221986177168385 -0.9794904948586037
0.008532325737178326 0.38990357518196106 0.031231094151735306 0.08289310911834846 0.7386426711326542 0.6689811184500734
-0.031484294682741165 -0.21064050495624542 -0.027003373950719833 -0.09172829424593054 -0.9938067136136107 0.06272269135844508
-0.07544708997011185 0.07469455152750015 0.04712896794080734 -0.8073346988363308 0.2691918954349759 0.5251156134481018
-0.04297735542058945 -0.18622711300849915 -0.05446426197886467 0.47315016029251816 -0.07405770114573551 -0.8778635330825477
0.142266184091568 0.14004161953926086 -0.19267632067203522 0.23305757129925583 -0.3088543389230892 0.9221134234943518
0.07392704486846924 -0.1774676889181137 0.060804929584264755 0.04459405481787042 -0.6986816987449258 0.7140414932717887
-0.03296852484345436 0.07995682209730148 -0.04250204935669899 -0.4788107777545759 -0.0002982960163393639 -0.8779180771151399
0.0963616669178009 -0.08942213654518127 0.026593418791890144 0.5577785703956323 0.5881049150955585 0.5856754009243095
-0.06772896647453308 -0.22203947603702545 -0.02447565644979477 0.6142681400009347 -0.476797223378768 -0.628759938257909
-0.137933611869812 -0.14028821885585785 0.021055156365036964 -0.8911828757091534 0.23345184728105173 -0.3889644161666056
0.052248939871788025 -0.29257047176361084 0.002185676246881485 -0.5521228693417694 -0.354791446051173 0.7545086924341754
0.0005912736523896456 0.08656028658151627 0.18427404761314392 -0.14817204173275167 -0.9878366474144196 0.047157227163897385
0.07139798253774643 -0.058649513870477676 0.02025362104177475 0.5513133340867775 0.6094880881442974 0.5697173668305457
-0.11703186482191086 -0.04222892224788666 -0.007498487364500761 -0.9149882989076312 0.2564986896000474 -0.3114559922293643
0.022962195798754692 -0.1649019420146942 -0.05258902907371521 0.23591037092283915 -0.1197859857067728 -0.9643638392843777
0.0040389965288341045 0.11878380179405212 -0.04878530651330948 0.3552539803553621 -0.16938482563825671 -0.9192950507237431
0.03525440767407417 0.1720222681760788 -0.1111258864402771 -0.34869187573859217 -0.8821282698455862 0.3166444241308142
-0.10492314398288727 -0.11843740195035934 0.06421199440956116 -0.27450532684261186 0.15213669265541624 0.9494741977973401
-0.03393067046999931 -0.198275625705719 0.011715189553797245 0.13147589826555015 -0.8216526882109584 0.5546178397157563
-0.10466767847537994 -0.21794064342975616 0.016343140974640846 -0.3654613615631804 -0.13926343495351715 0.9203497644316175
0.11149752140045166 -0.2469128668308258 0.005347451660782099 0.8285239968522505 -0.44010041756853524 0.3462074653960731
0.0234745591878891 0.2499220222234726 -0.0363490916788578 0.6612146808922469 0.6341810880815641 0.400761142443036
0.030314873903989792 -0.20096541941165924 0.00889672338962555 0.12485029458343148 -0.9921755687655368 -0.0002113935048291925
-0.001154113793745637 -0.1851016879081726 -0.037786636501550674 0.0043308825523892865 -0.5388634704543054 -0.8423819820403684
-0.06737392395734787 -0.4194606840610504 0.05332152917981148 0.02340232543450466 -0.9410770684112177 -0.3373815087920584
-0.06884632259607315 0.22526147961616516 -0.015848925337195396 -0.7345724559972758 0.37860233914032415 -0.5630839863533729
-0.02983452007174492 0.2445468306541443 0.04680750146508217 0.49977213416821986 0.5504912199812879 0.668720592349642
-0.12430765479803085 -0.07769373804330826 -0.013622913509607315 -0.924626410267024 0.1720126983125971 -0.3398200009651237
0.13696518540382385 -0.15061555802822113 0.029369449242949486 0.9487886615133869 0.26309317254766124 0.1748772665112378
-0.06074170395731926 0.13833199441432953 0.12056910991668701 0.9824632879110857 -0.058147342502612845 0.17715748493028163
-0.000529093318618834 -0.10923837870359421 0.05434342101216316 0.17622722980067396 -0.1079527279772921 0.9784120665645131
0.10520067811012268 -0.10051839053630829 0.02910296618938446 0.6066340967501627 0.5675891012929343 0.5566306538033937
0.06275643408298492 -0.2533451020717621 0.017629146575927734 -0.44161181463924426 0.060862181985271456 0.8951395421804499
0.03970804810523987 0.05081630498170853 -0.0047638933174312115 0.9873528203475591 0.12014240551521271 0.10344182204862276
-0.00957081001251936 -0.18617165088653564 0.03552456945180893 -0.3083539997352327 -0.6149888478512467 0.7257454979990439
-0.08342504501342773 0.15557706356048584 0.03984038159251213 -0.8675592612934738 -0.22907477622125585 0.4414359240513891
-0.10173212736845016 -0.4113773703575134 0.026613036170601845 0.18646725558402993 -0.9803829796313941 -0.06386842603375827
-0.09143853187561035 0.0427376814186573 0.02811521850526333 -0.9324496401678809 0.3436402459931259 0.11157531037184407
0.0889388844370842 -0.2688429355621338 0.011400529183447361 0.3625609194249938 -0.3972765962779037 0.8430426357875067
-0.11713609099388123 -0.34423455595970154 -0.007281911559402943 -0.14727167448105832 -0.21987389550596545 0.9643477194303812
0.10065211355686188 -0.43151071667671204 0.00436532124876976 0.26778284444328737 0.9441625007013238 0.19196228924266642
0.06116662546992302 0.1656835973262787 -0.12454850971698761 0.4864241467710476 -0.6794582145130812 0.5492978100891666
0.01996706798672676 0.25965702533721924 -0.04909276217222214 0.4884004009089972 0.8615984277909269 0.13825048867954803
0.030463332310318947 0.130295529961586 -0.030116083100438118 0.8159847082765747 -0.14374617320943917 -0.5599160593753634
-0.08317825198173523 -0.21924664080142975 0.021022235974669456 0.018089767448443615 -0.1433058592018799 0.9895131080648059
0.02824191190302372 0.22362807393074036 -0.010153072886168957 0.7689291817486062 0.49859112208587114 0.4001934612566411
0.002096268581226468 0.031439002603292465 -0.050958022475242615 0.11373011494141673 0.2871485239121591 -0.9511105015561969
0.07813842594623566 0.17925404012203217 -0.1472681313753128 0.7411658186576008 0.3085083205346338 0.5962347234223351
0.021249577403068542 -0.37456613779067993 -0.02303312160074711 -0.8286435645717097 -0.300852818475359 0.4720565903674301
-0.020315205678343773 -0.06338616460561752 -0.06035503000020981 -0.056126223000273784 -0.12626906630379964 -0.9904069718991735
0.027352919802069664 -0.17792366445064545 -0.04854655638337135 0.24847503322187134 -0.3477101290553 -0.9040784390846497
0.1146317571401596 -0.22322790324687958 -0.0060316044837236404 0.9540984056091006 -0.014102749009912133 -0.2991610684640226
-0.08390356600284576 0.054802168160676956 0.005349379498511553 -0.9044882239637511 0.18886295448185247 -0.3824027159099229
0.02469131164252758 -0.1371474266052246 -0.05093669518828392 0.5489820942693496 0.017007010115120832 -0.835661068722591
-0.043516501784324646 0.08921690285205841 0.06294482946395874 -0.18631735702305602 0.08197043692616016 0.9790641909201242
-0.06012903153896332 0.19872070848941803 -0.033798009157180786 -0.7601546563440937 0.02863183545531553 -0.6491110201166304
-0.06588368862867355 -0.037971820682287216 0.06952282041311264 -0.1725519583461439 0.07795733722030816 0.981910624876027
-0.10293644666671753 -0.037043336778879166 -0.02702510915696621 -0.6825141352174244 0.10535153708728912 -0.7232395929854483
