ply
format ascii 1.0
comment VCGLIB generated
element vertex 393
property float x
property float y
property float z
property float nx
property float ny
property float nz
element face 0
property list uchar int vertex_indices
end_header
-0.06566986441612244 0.11277134716510773 -0.026357078924775124 -0.7142556311676611 -0.055375932521576084 -0.6976907620447986
0.18412016332149506 0.11567311733961105 -0.24078230559825897 0.9374511381786894 0.23376104408768975 -0.25795568959515697
0.05965803936123848 0.19080717861652374 -0.12828326225280762 0.9194683527265763 0.20184256144726961 0.3373981753398817
-0.014841810800135136 0.1764017790555954 -0.06173042207956314 -0.08943317413253636 -0.3045494927615943 -0.948288623691772
0.007381515111774206 0.2593964636325836 -0.07054781168699265 0.08823181072159682 0.934214308390358 -0.34562808562892217
-0.02299361489713192 0.06327478587627411 -0.04573066160082817 -0.21913290776711583 0.03297014916618632 -0.9751378046191669
-0.03788746893405914 0.3922191560268402 0.02107275277376175 -0.5220866965247147 0.7530891233211507 0.40035266159636185
0.02683866024017334 0.21220572292804718 0.0004969260771758854 0.7357254197885996 0.5703396914843217 0.3652680426679257
0.033471886068582535 0.09161548316478729 -0.014175320975482464 0.9650390448567354 0.11167778928555278 -0.23712383533143966
0.00021942637977190316 0.11718083918094635 0.05469512566924095 0.5453804605184746 -0.013423887168790465 0.838081113340431
0.07075314968824387 -0.042436372488737106 -0.02557952329516411 0.8682400989704433 0.3493787242551778 -0.35226926856826335
0.10235900431871414 -0.1757817268371582 -0.01402327325195074 0.40379992082900096 -0.5595241921820097 -0.7237943784677815
0.11543890088796616 -0.11040958017110825 -0.002190286060795188 0.8023053241010469 0.33069402305380685 -0.49693825575779765
0.17324596643447876 0.11779144406318665 -0.21823596954345703 0.4958845118992368 0.1628798432082318 0.8529763815809425
0.026068657636642456 0.17645077407360077 -0.1432637721300125 -0.901646317220606 -0.21526128133998862 -0.3750953204165374
0.10141169279813766 -0.17066924273967743 -0.022299937903881073 0.38331552750678405 -0.7175373570262625 -0.5815576907272072
0.01436638180166483 -0.3507096469402313 -0.03456735238432884 -0.9008654949954579 0.41426185470849575 0.12972461470386332
0.18514420092105865 0.10849568992853165 -0.23958753049373627 0.9573096956169398 -0.003373022882224977 -0.2890445802889898
0.04638231545686722 0.17921146750450134 -0.11034219712018967 0.38630978221001533 -0.7149862376318471 0.5827172832222384
-0.07865292578935623 0.09416323900222778 0.03464536368846893 -0.9281573324424514 0.015670782759856866 0.37185802774850274
0.013807634823024273 -0.1497810184955597 -0.04705745354294777 0.0001813108936639211 -0.22062619407896733 -0.9753584211009765
0.024647556245326996 0.04869051277637482 0.04074379429221153 0.727326561275291 0.07852003658195338 0.6817849199847625
0.06882740557193756 -0.25242042541503906 -0.03607773035764694 -0.050924944389471725 0.23362569007622128 -0.9709921147853564
0.0880366787314415 -0.09228421747684479 -0.02372211031615734 0.6615867499891491 0.00830871327816622 -0.7498226040354188
0.03782541677355766 -0.3050176203250885 -0.00886604655534029 -0.827044803728301 -0.04883207881688139 0.5600110005209166
-0.0710006058216095 0.13707907497882843 0.058610472828149796 -0.6195771159019953 -0.11487120843362364 0.7764849019289201
0.027371201664209366 -0.20444484055042267 0.0015521005261689425 0.30642665232333866 -0.9023164051874178 -0.30319599548075743
0.09979395568370819 -0.2557719349861145 -0.01835467293858528 0.9027390043275251 -0.20206690491664722 -0.37977790352146
-0.047353822737932205 0.3662761449813843 0.03004392236471176 -0.620192252249522 0.1985537646425107 0.758905773331546
0.11251067370176315 -0.15653280913829803 0.054554954171180725 0.6858105952434103 0.21252390770867627 0.6960584861231947
0.0406615324318409 -0.19479617476463318 0.03840084746479988 0.02687399887182638 -0.9311637053725064 0.36360960105803236
-0.08794095367193222 -0.4019673466682434 -0.018812989816069603 0.9723670201351609 0.21020008180670824 0.10157905178687684
0.10598156601190567 -0.09595602005720139 0.009544972330331802 0.8151622579014655 0.526333650501168 0.2418333757840288
0.10730205476284027 -0.14192570745944977 -0.008475451730191708 0.6524183892560933 0.005949442539824569 -0.7578356348799852
-0.07899274677038193 -0.1268259435892105 0.07208472490310669 0.011078043028638502 0.013515791559823348 0.999847288510184
-0.11470241099596024 -0.20459918677806854 0.014808990061283112 -0.6964689756042275 -0.6020160103476575 0.39052232881858
-0.016164371743798256 0.1272905319929123 -0.0497160367667675 0.014104989623640747 -0.1423548904049451 -0.9897151784455531
0.013290920294821262 0.05376770719885826 0.05106193944811821 0.503317225251483 0.023139842299721845 0.8637918258836976
-0.08340353518724442 -0.31166911125183105 -0.0169580839574337 0.9459635003620103 -0.28201962054772867 -0.16005620765521172
-0.07047782838344574 0.013026258908212185 -0.03258657827973366 -0.5301847468732154 0.3010418166831677 -0.7926398670210087
-0.10217451304197311 -0.354510098695755 -0.007420022040605545 0.416685982205074 -0.31086775612336254 0.8542447134379109
0.15586164593696594 0.1320095807313919 -0.21115674078464508 0.37860952131631337 -0.155963599339319 0.9123213173272652
-0.11242066323757172 -0.18585874140262604 -0.044653117656707764 -0.7428628559892613 -0.6236839370011646 -0.24325526493419494
0.08029118925333023 -0.23629452288150787 -0.030256714671850204 0.26640163354708574 0.2607537118864262 -0.9279211557998315
-0.14847835898399353 -0.1598636358976364 0.025591010227799416 -0.9278805847816092 0.08221474194697956 -0.3637009164023797
0.005216977093368769 0.21482287347316742 0.028027990832924843 0.7082134534889278 0.489177843959361 0.5090567171510042
0.03238983079791069 -0.3742380142211914 -0.046899184584617615 0.19901837078910628 0.12074735552007651 -0.9725285415983215
0.046352386474609375 -0.005801702383905649 0.0105407340452075 0.8466493170364575 0.293234319814439 0.4440704534695631
0.032544322311878204 0.022927040234208107 0.03348850831389427 0.7924672053128053 -0.0760964210702093 0.6051487942680025
-0.03286651149392128 0.3302517831325531 -0.028781898319721222 -0.18054716777839763 -0.3885953428101608 -0.9035465564947125
-0.006802045274525881 0.06903507560491562 -0.04660192131996155 0.07411750181917635 0.12116709952957559 -0.9898611669904394
0.1861400306224823 0.09613842517137527 -0.22728198766708374 0.8115391942836536 -0.3696262200042343 0.4525268982356957
-0.024283291772007942 0.2419300228357315 -0.06698785722255707 -0.6507367830463736 0.3191601973880722 -0.688969090448667
0.00216749613173306 0.08061452209949493 0.05595333129167557 0.47747444298639313 0.07050523254667548 0.8758122906641427
0.08350116014480591 -0.09988193958997726 -0.025087054818868637 0.7075956118505452 0.04291489374680917 -0.7053132367852972
-0.07120934873819351 0.1659538596868515 0.08006170392036438 0.7981804260341713 -0.5997750097877774 -0.0563732660928949
-0.05601117014884949 -0.04310927167534828 -0.051028307527303696 -0.4178007110861659 -0.06750090098766483 -0.9060277005598382
0.04162946343421936 -0.1081303060054779 -0.03686659783124924 0.04868483567153388 -0.3959107381752224 -0.9169975322612304
-0.09363079071044922 0.19218289852142334 0.06856522709131241 -0.9587349536793868 -0.2116141405594908 -0.1898598011919648
0.043258875608444214 -0.20088553428649902 0.014006037265062332 -0.047142816552368384 -0.9988846494789858 -0.002647995988196713
-0.06330787390470505 -0.12378810346126556 0.07111963629722595 0.09507618901318106 -0.10891751415661456 0.9894935539924823
-0.07355982065200806 0.11285807937383652 0.047597210854291916 -0.8326285447968914 -0.18754200559609718 0.5211119865503044
-0.02649363875389099 0.1250649094581604 -0.047858767211437225 -0.1954796506412462 -0.11313951584973736 -0.9741597179818428
-0.08124962449073792 0.09310390800237656 0.023716304451227188 -0.9760085248347045 0.00599121616254665 0.21764986739917397
-0.06104490906000137 0.20774435997009277 -0.03498454764485359 -0.7564623277626656 0.11314687028158582 -0.6441758551990067
-0.1443554162979126 -0.14781872928142548 0.05975650995969772 -0.6064858113393017 0.17633868771264738 0.7752932528146305
-0.08230554312467575 -0.2845037579536438 -0.03566624969244003 0.6012486811554506 0.04564391733060974 -0.7977572664786876
-0.10966847091913223 -0.26844754815101624 -0.034773070365190506 -0.4471508403594806 0.26479980664248376 -0.8543636160136465
-0.029761914163827896 0.10766439884901047 0.06510017067193985 0.14209686920134934 -0.023214480134998883 0.9895805008564167
0.04205728694796562 0.15887868404388428 0.0032792361453175545 0.9151000233252251 -0.3344264092170857 0.22527965759992363
-0.11768437176942825 -0.29055264592170715 -0.035065457224845886 -0.7082485314001463 0.11650984526071125 -0.6962826105302797
0.048172835260629654 0.07373711466789246 0.1839803159236908 -0.2777216177659517 -0.8458349049914451 -0.4554492469239307
-0.06236821413040161 0.08682285249233246 0.15559349954128265 -0.2633471646043119 -0.9480106869912218 0.1786729085376432
-0.031788650900125504 0.3548753261566162 0.040027156472206116 -0.3372650382218227 0.0332496534526406 0.9408223820352659
0.060466501861810684 -0.03464280068874359 0.0029722366016358137 0.7684462451606975 0.4464966983818355 0.4584005526093368
-0.03592923283576965 0.3969316780567169 -0.007034313399344683 -0.3616910471590166 0.9212603810452572 -0.14303459973503457
-0.0521903932094574 0.08073876798152924 0.061908647418022156 -0.2953569876097854 0.11935530469615424 0.9479021896329607
0.03476101532578468 0.3421965539455414 0.008655523881316185 0.9895321102980166 -0.12737173890019177 0.06784278015157864
0.009694998152554035 -0.1947428435087204 -0.02134065143764019 -0.09350444091461137 -0.8533503367465493 -0.51288412171152
-0.01433560810983181 0.29599034786224365 -0.021172182634472847 0.045508013354489237 -0.12142574144881196 -0.9915567608735941
-0.10246525704860687 -0.270581990480423 -0.03744254261255264 -0.06130545263375066 0.28544210403465636 -0.9564331898892047
0.014062387868762016 0.0829407274723053 -0.038509171456098557 0.4579904613930082 0.09422260419332346 -0.883949567640625
-0.09473705291748047 -0.16984862089157104 -0.06325720250606537 -0.23619088743978775 0.18989420010664876 -0.952971173465526
-0.030023502185940742 0.10989151895046234 0.06511663645505905 0.08688593445891361 -0.07256864252123882 0.9935716514252135
0.026978932321071625 0.20721182227134705 -0.07087579369544983 0.8584473378767373 -0.4961240340054705 0.13011191711169934
0.07587100565433502 -0.42721888422966003 -0.005572995636612177 -0.31291907299605803 -0.9496025036513921 0.018350444525834984
-0.017379775643348694 -0.05180797725915909 0.06072331964969635 0.427035990458414 0.028729225781438418 0.9037781223503922
-0.06563278287649155 0.1502297818660736 -0.028680413961410522 -0.7209192478721118 -0.11081704700118064 -0.6841016153624012
-0.0969388410449028 -0.13621142506599426 -0.056251611560583115 -0.21478553324375793 0.27221726757003784 -0.9379578529688299
0.006174382753670216 -0.12012853473424911 0.05235666409134865 0.09142768193058834 -0.08562828205079857 0.9921233674749467
-0.06462828069925308 0.36411789059638977 0.005661868490278721 -0.8981191482407986 0.020994410930756047 0.4392507601278488
0.08393529802560806 -0.4268220067024231 -0.016187768429517746 -0.10560923437922924 -0.9324705984582305 -0.3454638514009569
-0.03285349905490875 0.2574724853038788 0.03621099889278412 0.40575768303910803 0.40951646853647133 0.817102787078928
-0.03959738463163376 -0.02000395953655243 -0.058981653302907944 -0.41330964521972274 0.18352540166248155 -0.8919044590722549
-0.0558091476559639 -0.03423086181282997 -0.052132319658994675 -0.4277970538737241 -0.06337035444299106 -0.9016506412545446
-0.044672999531030655 -0.029000326991081238 0.06945744156837463 0.059376289976931625 0.05258773319323622 0.996849530524127
-0.09832771867513657 0.22502614557743073 0.06769299507141113 -0.9673270960345963 0.1968079535668898 0.15982777821795516
-0.06564151495695114 0.03664257004857063 0.06076177954673767 -0.4483757972505548 0.10651282051420641 0.8874762889824369
0.018974924460053444 0.09060439467430115 0.04085926711559296 0.7478193066772091 0.10906540635506759 0.654882448762694
-0.09354293346405029 0.19851306080818176 -0.00022623319819103926 -0.8482254052647107 0.07517804154604187 -0.5242727571911581
0.11235993355512619 -0.1883312165737152 0.00596553273499012 0.5431249342069693 -0.6160823289076405 -0.5704891496342532
0.12077213823795319 -0.15761615335941315 0.0017779244808480144 0.668809688213858 0.04268389300795713 -0.7422073067741704
0.035315871238708496 0.37759608030319214 -0.0012456324184313416 0.863971749892035 0.3187885241577837 -0.3897777472532229
-0.1161930188536644 -0.4207974672317505 0.017217278480529785 0.15958613332086907 -0.9731758762592898 -0.16571354778248315
-0.05851360410451889 -0.1879323124885559 0.04996969923377037 0.20048459690009018 -0.8626810439890458 0.46431384078851096
0.06422924995422363 -0.032858725637197495 -0.006203257944434881 0.844824707335816 0.4972553975940926 0.19750514787846352
0.0689324364066124 -0.17519395053386688 -0.011875174939632416 -0.2181219961844849 -0.4152812109986024 -0.8831558812418281
0.039971429854631424 -0.38448649644851685 -0.00832319911569357 0.009745422078085784 0.034863143187004744 0.999344579209615
-0.07598698139190674 -0.4218273162841797 0.012033975683152676 0.011689000655118735 -0.9170530429259808 0.3985938831992834
0.10021444410085678 0.16663327813148499 -0.1744224578142166 0.5663301622065631 0.2297334082884945 0.7915129237676666
-0.005242940504103899 0.2692599892616272 -0.014668624848127365 0.9532188463987367 0.2871740807670393 -0.09436566221813758
0.04558144882321358 0.026170989498496056 0.004537807311862707 0.9788186062188612 0.07444172254988048 0.1907159302826392
0.07424331456422806 -0.11222978681325912 0.042319320142269135 0.10678798954502561 0.3710986884805835 0.9224327014459767
-0.08046359568834305 0.06561167538166046 -0.000782586052082479 -0.9022298438341818 0.07733424831215406 -0.42426492069571603
-0.10349423438310623 -0.36995139718055725 -0.04417743161320686 0.7475766289996689 0.021335579232020372 -0.6638327928268725
-0.10145560652017593 -0.3706413209438324 -0.041627317667007446 0.8084227064585252 0.06100679995061476 -0.5854322318100184
0.12450151145458221 0.14889512956142426 -0.2253151386976242 -0.2810237535652994 -0.059093625086989954 -0.9578797384881612
0.166302889585495 0.09544487297534943 -0.2250741422176361 -0.5299232647986157 -0.7556068116867508 0.385019063888737
-0.08872471004724503 -0.40100711584091187 -0.022756267338991165 0.9778521195927732 0.20474381255872554 -0.04341892936080319
0.017087196931242943 0.04651371017098427 -0.04656708985567093 0.28724147493166724 0.24127212076283397 -0.9269736235846654
0.061523523181676865 -0.25565919280052185 0.01774769276380539 -0.293126482840918 -0.03914937064739946 0.955271789510831
-0.061977267265319824 -0.23411963880062103 -0.009417010471224785 0.8078156069157822 -0.5110696689693327 -0.29366943777462307
-0.053232379257678986 0.3167659044265747 0.012001456692814827 -0.885491308553881 -0.3736642993390113 0.2761885838969837
-0.10168299078941345 -0.06535881757736206 0.05164387449622154 -0.6280362122512814 0.2811289006597759 0.7256287324209878
0.03672280162572861 0.10099544376134872 0.2005271315574646 0.05844030288969286 0.7392693434879609 0.6708692635506864
0.03746727108955383 0.3768034875392914 0.009076522663235664 0.9595312381340525 0.2780644398672631 0.044496857487214984
-0.11495351791381836 -0.12367276102304459 -0.04417139291763306 -0.6225085304846572 0.3396915258699241 -0.7050480811448219
-0.10335180908441544 0.10708130896091461 0.1240360289812088 -0.9529401217209248 -0.30315831167283214 0.00040308583074253636
0.059654638171195984 -0.02479248121380806 -0.007585500366985798 0.8766007828000784 0.40837067351832407 0.2545672025310414
-0.071296826004982 -0.0740474984049797 -0.045756079256534576 -0.33832923114217617 0.1610548277716496 -0.9271432865561764
0.07873542606830597 -0.10775202512741089 0.039530280977487564 0.18642284583772467 0.43610472021217656 0.8803744632589152
-0.006134632974863052 0.12787385284900665 -0.049360230565071106 0.08749435270461194 -0.1521833102760094 -0.9844719286593381
-0.03146772459149361 0.03494339436292648 -0.04880395904183388 -0.42703706661363483 0.270617128273225 -0.8627894955452199
0.03687868267297745 -0.01952352002263069 -0.05631343275308609 0.5006505570329137 0.17055301961977107 -0.8486817349520439
0.1277969479560852 -0.13494329154491425 0.011348012834787369 0.8938899438388755 0.24998440119449417 -0.37211364858489415
0.01822199672460556 0.037970442324876785 -0.048203058540821075 0.2864566678202095 0.2501150711910281 -0.924870276646649
0.03288731724023819 0.022072168067097664 -0.04751566797494888 0.5745572435434413 0.27785283038999176 -0.7698582847096168
0.03664608672261238 -0.3139621615409851 -0.011058719828724861 -0.7681031855182764 0.007349060794960257 0.6402839117939073
-0.08825133740901947 0.03771310672163963 0.006530806887894869 -0.8798470138370331 0.37163439272949644 -0.2962382662362073
0.17493513226509094 0.09565632045269012 -0.24959859251976013 0.2382285716299222 -0.4748995003755626 -0.8471821599881623
0.07609236985445023 -0.3073815107345581 -0.008539649657905102 0.7317815218873218 -0.5861978292308295 0.34766062363940287
-0.008871058002114296 0.24890244007110596 0.018862493336200714 0.7673070773776195 0.3501140085121946 0.5372709093648556
-0.047735922038555145 -0.21270368993282318 0.010090131312608719 0.5763281766997655 -0.7624507204111042 0.2941338669492379
-0.05295528098940849 -0.1283169537782669 0.06890873610973358 0.20494532051156172 -0.2014586457778141 0.9578161773752741
0.04636780917644501 -0.3766576051712036 -0.009794139303267002 0.520315442842597 0.017472366203557504 0.8537953831912894
0.019347231835126877 -0.13158419728279114 -0.046654362231492996 0.44351018568481365 -0.08353707257604505 -0.8923677900390884
-0.12918435037136078 -0.151805117726326 -0.03653883561491966 -0.8942756400616604 -0.06089225777441728 -0.44335449984796765
0.063624806702137 -0.0941750705242157 0.037347160279750824 0.27195275914691525 0.28405338941950714 0.9194320903425492
-0.06817267090082169 0.015493771061301231 -0.032823093235492706 -0.5319096848695569 0.3279175639916446 -0.7807318095016715
0.0165854599326849 -0.16985899209976196 -0.04121728613972664 -0.17763915288300502 -0.33413284611932964 -0.9256346863137773
0.06699205189943314 -0.27733615040779114 0.0109860273078084 0.08760175452836244 -0.3906618933347093 0.9163564905099395
0.02495598793029785 0.16811229288578033 0.03149137645959854 0.7981989248918452 -0.057728126510784315 0.5996214970388047
0.1270778775215149 -0.1877991110086441 0.021282605826854706 0.7112258487880028 -0.6980491916348532 0.0829766116066022
0.0372968427836895 -0.08793822675943375 0.04761721193790436 0.26801769098541545 0.17120936627373246 0.9480790421789701
-0.08862249553203583 -0.3994043171405792 -0.016423791646957397 0.9723670201351609 0.21020008180670816 0.10157905178687679
-0.030098894611001015 0.30848559737205505 -0.020593173801898956 -0.1888936394709812 -0.138250490543029 -0.9722170512966839
-0.07671588659286499 -0.11919853091239929 0.07120458036661148 -0.01635443752439283 0.015010197405714685 0.9997535828128361
-0.06868697702884674 0.09194359183311462 -0.017926568165421486 -0.7420148256946595 -0.1446568380026567 -0.6545902517364564
0.05473018065094948 -0.41668209433555603 -0.0003677617642097175 -0.2190748861485922 0.19871768789068875 0.9552578054003853
-0.014928805641829967 0.23336118459701538 -0.07793820649385452 -0.6563425245449239 0.1377488109595401 -0.7417814742585777
-0.015524359419941902 -0.19232650101184845 0.036712098866701126 -0.12008657702948648 -0.8048404386236603 0.5812151773426217
0.014844898134469986 0.05191464349627495 0.04968149587512016 0.5031940883942599 0.026117007320326527 0.86377868191667
0.005762757267802954 0.2102115899324417 0.03168797492980957 0.7052320851188537 0.4974953978142362 0.5051198226882103
-0.06823161244392395 -0.4129455089569092 0.045359738171100616 0.14610866481643067 -0.95954800676237 -0.24066549562395304
-0.10051402449607849 -0.0021952115930616856 0.02757679857313633 -0.9566289457444287 0.18667498723238257 0.22363700343568543
-0.08726825565099716 -0.19677221775054932 0.03849664703011513 0.03737236136335339 -0.7330774001616914 0.6791176863978015
0.12555915117263794 0.16308563947677612 -0.19857533276081085 0.5486876436501302 0.6831570935597452 0.48191104492911285
0.027222225442528725 0.23859290778636932 -0.035878345370292664 0.8190730863950951 0.4710396817455195 0.32747656002268727
0.033661771565675735 0.21917441487312317 -0.03350469842553139 0.9970709834413688 0.04291442843101601 0.06330723348639415
0.020023345947265625 -0.15707655251026154 -0.0440359003841877 0.3408805244219172 -0.04016334582863933 -0.9392483024853906
-0.10433902591466904 -0.04473446309566498 -0.01916845329105854 -0.8194135518234891 0.18189279617213136 -0.5435774478293758
0.04474642500281334 0.19245965778827667 -0.09762201458215714 0.6345042938713205 -0.37759320855921524 0.6744091265017208
0.028468620032072067 0.13996608555316925 0.02192368544638157 0.8728089628325557 -0.02810619211233851 0.48725204603377786
0.10441780835390091 -0.17011193931102753 0.06430460512638092 0.38673443675873925 -0.5056617592770966 0.7711956046488416
0.019411452114582062 0.1826973557472229 -0.12827365100383759 -0.913909540425889 -0.3511980540624053 -0.20354183535902487
-0.030939551070332527 0.11065508425235748 -0.047594938427209854 -0.2303315211174815 -0.056176504218472006 -0.9714893672879282
-0.03453690931200981 -0.11695236712694168 -0.05542357265949249 -0.07437243386284653 -0.152561912708489 -0.9854915544397344
-0.09437310695648193 0.03101864643394947 0.02189161255955696 -0.9273993305508292 0.3695612201769561 0.05792224300899376
0.08407380431890488 -0.10882330685853958 -0.0255565382540226 0.6934596014217734 0.19578896321694106 -0.6933833449675514
0.03821061924099922 -0.31085506081581116 -0.008761897683143616 -0.6952961422897975 -0.042553144375497266 0.7174625456570425
0.04050043597817421 0.15341681241989136 -0.005035390146076679 0.9412203070524926 -0.33112940159546017 -0.06676565727261304
-0.0659705400466919 0.14748091995716095 -0.026264267042279243 -0.7347731563464845 -0.1215105991994059 -0.6673406798591149
0.04805360361933708 0.20434975624084473 -0.10483919084072113 0.9748043503142682 0.1583211901458364 0.1571333171519765
-0.08128681778907776 0.24012279510498047 0.002451895968988538 -0.6612566098212593 0.46164559037218184 -0.5912893072410617
-0.08669582009315491 0.14561827480793 0.028781024739146233 -0.9649106311874788 -0.23658674312782232 0.11390428788044499
0.04416846111416817 0.2101828157901764 -0.09394098073244095 0.900533207127525 0.0012787871559573952 0.43478535803776097
-0.07454454153776169 -0.19742213189601898 -0.042701248079538345 -0.07713455591527077 -0.9333249765486195 -0.35064903883266685
0.09941019117832184 -0.25089919567108154 0.00567074678838253 0.809087911370284 -0.3232140361316896 0.49082526271773586
0.022348446771502495 0.17655308544635773 -0.13090139627456665 -0.9040477550503397 -0.3883663682003941 -0.17851952453240733
0.05149012431502342 -0.19868558645248413 0.028147051110863686 -0.06085582809969654 -0.9546893969119569 0.2913155052690889
0.00928523950278759 0.2062620371580124 0.03110956959426403 0.6994543731561437 0.5019612544892718 0.5087223986265033
0.02498134784400463 0.18278610706329346 -0.14215190708637238 -0.8869031406255077 -0.164532051810511 -0.43166193146446713
0.03662792220711708 0.062338490039110184 -0.022698143497109413 0.8698845882698877 0.2436957294811575 -0.42885101669831055
-0.11504490673542023 -0.0503867007791996 0.022542327642440796 -0.9212676191438993 0.3112106098375756 0.2332679365910705
-0.058745354413986206 0.1074749007821083 0.16694079339504242 -0.27080905352756346 0.1170406483391685 0.9554914668189625
-0.12370532751083374 -0.0790661871433258 0.0071367244236171246 -0.9853465476860406 0.12694407264571508 0.1139183189101772
0.07458434998989105 -0.2448848932981491 0.01907077617943287 -0.10922401726963504 -0.06584675428502892 0.9918338162220572
-0.11419310420751572 -0.04946732148528099 0.023892737925052643 -0.9044976997304102 0.2996080854942648 0.30351096568140395
0.04578377306461334 0.1712135523557663 -0.010783097706735134 0.9667033221978361 -0.10988991378723445 -0.23110364276553702
0.17098282277584076 0.10317408293485641 -0.21670696139335632 0.050674841338638574 -0.35235434608741006 0.9344936999512717
0.04585377871990204 -0.36805760860443115 -0.009854244068264961 0.5940122938855555 0.1352860084962133 0.7929987961012193
-0.11412607133388519 -0.13210918009281158 0.06746438890695572 -0.30163015681044764 0.11838608516654253 0.9460465016802531
-0.10914773494005203 -0.06525565683841705 -0.020848974585533142 -0.7092599105014092 0.28962893859134 -0.6427016860768197
-0.07464948296546936 0.11776749044656754 -0.016093406826257706 -0.8181204954774028 -0.053070464219397755 -0.5725926830717858
0.05436811223626137 -0.37866151332855225 -0.023303598165512085 0.9853164035089108 0.11870708288824577 0.12272006131203021
-0.018188321962952614 0.14829802513122559 -0.053117211908102036 -0.15248502168453892 -0.168091961262476 -0.973906263826658
-0.11913266777992249 -0.13256144523620605 0.06512968242168427 -0.280330996217114 0.13339029717264916 0.9505901120778151
0.009142383001744747 -0.36773332953453064 -0.04670342057943344 -0.5429272604108727 0.4186624610776695 -0.7279778386648411
-0.05409681797027588 -0.03210696205496788 -0.053165238350629807 -0.4199609118736256 -0.03591678175459602 -0.9068311955853006
0.038635555654764175 0.19742804765701294 -0.1516413539648056 -0.4976332753442993 0.6693636610391506 -0.5516460935693916
0.09393628686666489 0.14613276720046997 -0.17493018507957458 0.2349399332430854 -0.7155206445331747 0.6579007790043759
-0.10938554257154465 -0.421743243932724 0.013235729187726974 -0.040824958927046615 -0.9991568023105504 0.004359716178922144
-0.11135716736316681 -0.38213950395584106 -0.013164189644157887 -0.5753435903807969 0.14342148864718327 0.8052391133085623
-0.0626327320933342 0.10389376431703568 -0.0239730067551136 -0.7206894664913309 -0.08680996578005327 -0.6878013686593732
-0.09644128382205963 -0.23714284598827362 0.021985754370689392 -0.27577576540548177 -0.03548620413755756 0.9605667371562104
0.11005034297704697 -0.1418212205171585 0.04922761395573616 0.6076519596643408 0.4171191782118836 0.6758481242734414
-0.028174979612231255 0.19041548669338226 -0.06314938515424728 -0.37673471540759196 -0.18925504649594718 -0.9067819371726467
0.009407849051058292 0.05014561861753464 -0.04800568148493767 0.19319895600324996 0.2274750930105677 -0.954426134103152
-0.05666740983724594 0.3706149756908417 0.017564818263053894 -0.7580338006322386 0.26707447517596744 0.5950260345636359
-0.11537450551986694 -0.15167322754859924 -0.05526723712682724 -0.4511805156012167 0.21355662480566295 -0.8665043048614551
-0.022107494994997978 -0.1948702484369278 -0.031153397634625435 0.4142617195619769 -0.40584178746954047 -0.8146653737879636
-0.07952181249856949 0.062040943652391434 0.0461735874414444 -0.7902411713140886 0.17493207196907076 0.5872969107331872
-0.08867545425891876 -0.06088840961456299 0.060190364718437195 -0.5357610033680937 0.12574169029206556 0.8349545943298401
-0.07197891920804977 0.37606167793273926 -0.0065235476940870285 -0.9981934862101585 0.046235379144897795 0.03836735334809804
-0.10268962383270264 0.1169571578502655 0.1077674925327301 -0.8118329663140206 -0.31789179959902836 -0.4897673310394127
0.003413774771615863 0.039415039122104645 0.056857116520404816 0.39749106792391087 0.03355342964285163 0.9169923763477595
-0.04984396696090698 0.04369804635643959 0.06485478579998016 -0.21210164905243636 0.0694973365338402 0.9747733124598453
0.027625709772109985 0.3032885789871216 0.024183861911296844 0.6760529398344265 -0.35937678425809483 0.6432734639929896
-0.05150669440627098 -0.03386693820357323 -0.054298337548971176 -0.4135046743436244 -0.05358052233153091 -0.908924095798243
-0.027419738471508026 0.25997382402420044 0.032918836921453476 0.5686431536978921 0.19066737188518004 0.8001818024992283
-0.07610683143138885 -0.259311705827713 0.009816727600991726 0.7993045468087324 -0.34521449148657335 0.49187315063800113
-0.1072997897863388 -0.1605161726474762 -0.05937173217535019 -0.3178998628282467 0.1621915732817296 -0.9341485806712867
0.05654308944940567 -0.04647855833172798 -0.04340553283691406 0.6344969424658771 0.11024548050663283 -0.765022590535283
-0.029763149097561836 0.34805965423583984 0.04018097370862961 -0.23215792792976322 -0.008922545168498651 0.9726371803951743
0.04762373864650726 -0.38863405585289 -0.008662968873977661 0.3936794136393174 0.24487113992940532 0.8860330942500269
0.015083251520991325 0.10302594304084778 0.18880967795848846 -0.14578083131925018 0.9676065147686165 0.20612030903625078
0.030439939349889755 0.034999798983335495 -0.04334494471549988 0.6077987479151863 0.31837936566452113 -0.7274718286997711
0.0016981419175863266 -0.14902040362358093 0.04816875606775284 -0.05592895325192206 -0.18918112525160818 0.9803481290014684
0.007943378761410713 -0.1976284384727478 0.030288519337773323 -0.032945662678651344 -0.897363944226572 0.440059694715154
0.1206020787358284 -0.12049411982297897 0.008045818656682968 0.8941319870202119 0.3661000873341826 -0.2578734492753985
-0.06054525449872017 -0.02620910294353962 -0.050662677735090256 -0.45538020022751174 -0.007869270007069705 -0.8902622915918136
0.029749104753136635 0.3322262763977051 -0.01408733893185854 0.810684427555107 0.06253348450201658 -0.5821342819622332
0.0021553183905780315 -0.14271916449069977 -0.04810429364442825 0.002351095628789081 -0.238053143940338 -0.971249284689294
-0.04709002003073692 0.24189497530460358 -0.04357787221670151 -0.7413302514380179 0.2998908388553521 -0.6004123108943372
0.055212702602148056 -0.23799796402454376 0.009417028166353703 -0.7458009300147345 0.23544963255864826 0.6231728839713382
0.11486992239952087 -0.16972368955612183 0.058987341821193695 0.6108269736485492 -0.325956416241627 0.7215558349665462
-0.08587038516998291 0.029628707095980644 -0.007829989306628704 -0.7741561790874734 0.4472270455332094 -0.4479622530128186
0.05631725862622261 -0.015637921169400215 -0.005769140087068081 0.8932608435970669 0.3824783768805116 0.23621040729634638
0.0830971896648407 -0.21723850071430206 -0.022445516660809517 0.06073529752897511 0.4310812035307381 -0.9002667491341426
-0.07926131784915924 -0.014009972102940083 -0.03722774609923363 -0.5336135261869932 0.2014643665453074 -0.8213821970817126
-0.12391576170921326 -0.3377138376235962 -0.013623947277665138 -0.8500145756645268 -0.1827965340887842 0.49402494702492755
-0.03487144783139229 0.30822062492370605 0.03027593344449997 -0.4713327466931253 -0.12745196554545585 0.8726977932671276
0.02847779542207718 0.3003503978252411 -0.005646007135510445 0.5890665388543274 -0.5564851173529617 -0.5859393543421058
-0.11466676741838455 -0.15567322075366974 0.06724041700363159 -0.10338058706069589 -0.2848801009465932 0.9529720784491248
-0.09324540942907333 -0.32194653153419495 -0.03852424398064613 0.6152862294236079 -0.11518098596814284 -0.7798436999508849
-0.08570650964975357 -0.41280943155288696 -0.021445855498313904 0.9332639280542755 -0.35093637182655735 0.07656437501812696
0.05334232375025749 -0.11304542422294617 -0.039121877402067184 -0.12840385078395086 -0.39866671174150614 -0.9080623899562562
-0.09913290292024612 -0.2713335156440735 0.020409781485795975 -0.00802922292767907 -0.12909636903927466 0.991599545724005
-0.04036758840084076 -0.20098040997982025 -0.03834671154618263 0.17733168825667206 -0.8104966559421969 -0.5582549982280094
0.09886336326599121 -0.18120361864566803 -0.005775297526270151 0.42239666810691234 -0.4438483176843765 -0.790303565511967
-0.040996257215738297 0.3921035826206207 0.015842219814658165 -0.5251337670681838 0.7824665389349177 0.3346350880167671
-0.08960238844156265 0.22294509410858154 0.004743199795484543 -0.8465154332029603 0.23500595792559498 -0.4776859021246889
-0.07286550104618073 0.1480753868818283 0.12158726155757904 0.7170382036933037 0.22217754409501256 0.6606764361956532
-0.10061687231063843 -0.34265246987342834 -0.04168574884533882 0.47380614639741103 0.08775665829251533 -0.8762456873282549
0.04317910596728325 0.04951468110084534 -0.006947365123778582 0.9771778953652559 0.21093140445439287 0.02512575221613135
-0.13932116329669952 -0.11950159072875977 0.0346640981733799 -0.9325772512097898 0.35715432832765936 -0.05234936754929471
-0.006046891212463379 0.12039847671985626 0.05857548862695694 0.48866491438287096 -0.016310438870491568 0.8723190763906481
0.06103433668613434 -0.22108754515647888 0.00945888552814722 -0.8810003916804405 -0.06104038876066097 0.469161359021454
0.019120166078209877 0.14757369458675385 0.034605495631694794 0.7910277439713875 -0.06796933975312172 0.6079928265375028
-0.08374830335378647 -0.41094881296157837 0.03260133042931557 0.10611543550829755 -0.7977766470594648 -0.5935418567830262
0.13297420740127563 -0.14995050430297852 0.012980284169316292 0.923036463557627 0.14493757630516788 -0.356366084129527
-0.1081475093960762 -0.1921786218881607 -0.04278842359781265 -0.7023564252789605 -0.6823705631857456 -0.2026471474433541
-0.06705822050571442 -0.06326275318861008 -0.04521661251783371 -0.36323560324015924 0.03592047115688909 -0.931004627427074
0.04614829644560814 0.21146927773952484 -0.12435314804315567 0.6346988999705993 0.7171026664980767 -0.2879601918277237
0.025133483111858368 0.005017655435949564 -0.05543970316648483 0.40920054185557836 0.168805223698748 -0.8966937676805369
0.07056930661201477 -0.20344480872154236 -0.01082631479948759 -0.5741558160392323 0.1466028517519244 -0.805513937040525
-0.023702356964349747 0.2313840538263321 0.05142906308174133 0.5949281868557473 0.5612917127665804 0.5753364803869919
0.03341139853000641 0.14689518511295319 -0.022117555141448975 0.8491555142131716 -0.22011186920685483 -0.48008923932497033
-0.09448973834514618 0.20445728302001953 0.0912194550037384 -0.8141868196905879 0.13761647477273437 0.5640580896620946
-0.07259319722652435 0.22708134353160858 -0.01594429835677147 -0.7476314083301372 0.342399889741639 -0.5690426985589123
-0.12540298700332642 -0.10316675901412964 0.010912176221609116 -0.9719355123905721 0.21373307169819736 -0.09828292739092222
-0.10882304608821869 -0.3505226969718933 -0.00515337148681283 -0.07340930260346365 -0.24604470102353754 0.9664745622050852
-0.04829232767224312 -0.08936196565628052 0.07243583351373672 0.11412112610086804 -0.0439192290433818 0.9924955767648059
-0.05711892619729042 -0.2022978514432907 -0.03400324285030365 -0.09583137636712152 -0.9214696648222641 -0.3764438923876007
0.04700144752860069 -0.03254412114620209 0.021326107904314995 0.7378141566559194 0.22144589684028618 0.6376456578780381
-0.09877754002809525 -0.10012592375278473 -0.042962394654750824 -0.5081111454154126 0.34067266624769166 -0.7910532209506048
-0.10229120403528214 -0.05368131399154663 0.04781042039394379 -0.7392652412002534 0.24199235843588263 0.6284318591635617
-0.042100973427295685 -0.12521715462207794 -0.05178127437829971 -0.031540213785943357 -0.1819749928484728 -0.9827971901120471
-0.009783688001334667 0.23558636009693146 0.02973441407084465 0.710646990512853 0.44571653972057046 0.5443506416773533
-0.036933109164237976 0.03094460442662239 0.06635726243257523 0.08046105388085611 0.04478646455612456 0.9957510689931219
-0.015424209646880627 0.22235161066055298 0.05048925802111626 0.6462665141440601 0.5120944002531539 0.5657728501134073
0.04997565224766731 -0.025541115552186966 -0.04715866968035698 0.6891241221862959 0.1297713511731891 -0.712928706558834
-0.03780589997768402 0.2241649329662323 -0.05751512944698334 -0.6893570829736998 0.08477296578558295 -0.7194444776533545
0.04421049356460571 -0.2692958414554596 -0.028087245300412178 -0.8219806682389953 0.11056248414050085 -0.5586803362765298
0.004182513803243637 -0.15834514796733856 0.04699287191033363 -0.14214173949034417 -0.08697775426446061 0.9860175435344801
0.044430337846279144 -0.4096519947052002 -0.025730235502123833 -0.46650492883018635 -0.8715094433875974 -0.15114377745505417
0.009369276463985443 0.0639156624674797 0.05354934558272362 0.48659561342204455 0.06294444009573533 0.8713568192534322
-0.0888834223151207 -0.32537710666656494 -0.016128338873386383 0.9059722019971728 -0.36756374022356797 0.21002682229004832
0.05400789901614189 -0.054060228168964386 -0.04559093713760376 0.5680577247688252 0.07259275615595683 -0.8197808933392797
0.011969364248216152 0.1240132674574852 0.04489462822675705 0.6849560244953308 -0.001364747545285365 0.7285831331918751
0.030980965122580528 0.34334033727645874 0.02241726964712143 0.8863848843463911 -0.061237108433691234 0.4588810884672798
-0.03985291346907616 0.13809429109096527 -0.044828034937381744 -0.41876131470535644 -0.10625279958287297 -0.9018588048508721
-0.06266725808382034 -0.21522189676761627 -0.02027170918881893 0.35641346755051945 -0.41288215516922255 -0.838151398072826
-0.011838053353130817 0.1565447300672531 0.07241147756576538 0.48085021799887345 -0.3306021873493387 0.8120869790670632
-0.022874625399708748 0.08038349449634552 -0.04517299309372902 -0.14451941740489502 -0.0053868167799255556 -0.9894873016860445
-0.1175595223903656 -0.14470458030700684 -0.0517256036400795 -0.5559166629406472 0.24656491006661851 -0.7938276947731008
0.0301988422870636 0.3809390366077423 -0.007603030651807785 0.7871608911264298 0.3717827171594951 -0.49209281919425296
-0.08181539177894592 0.08899977058172226 0.13963840901851654 -0.21939508608398964 -0.9755791446028652 0.010541765418591661
-0.09534521400928497 -0.09933371841907501 0.06534668058156967 -0.30164759441996597 0.20378322789112868 0.9313866677223377
-0.05767662450671196 0.32866546511650085 -0.00610943092033267 -0.9117957103443521 -0.3793570202048318 -0.15721588284568835
-0.10590111464262009 -0.019597217440605164 -0.009904354810714722 -0.8891421067353915 0.2429718563267735 -0.3878027734084319
-0.05592368543148041 0.2448253035545349 0.06880142539739609 0.4704164968698886 0.7206368644018258 0.509304259885745
0.17052452266216278 0.09784070402383804 -0.2518996298313141 -0.22143445060127023 -0.3608778062202725 -0.9059437030326758
-0.0883379578590393 0.16165368258953094 0.011199282482266426 -0.9400137094929556 -0.23181676263245699 -0.2502702829500549
0.10528308898210526 -0.2303321212530136 -0.011099043302237988 0.9096046006594993 -0.04273381270191187 -0.413271450394327
-0.09214727580547333 -0.3990423381328583 0.0007648869068361819 0.5608579436414278 0.6907550422436073 0.45639438939292554
0.023483965545892715 0.12293176352977753 -0.03224702551960945 0.8326143251772441 -0.09246735151487172 -0.5460798242138852
0.06445612758398056 -0.2194948047399521 0.018317023292183876 -0.9305774857751922 -0.035056047085464385 0.3644127008366528
-0.1051882952451706 0.11799432337284088 0.12069157510995865 -0.9994857599800094 -0.011797280402953823 -0.029816769983968358
0.06733888387680054 -0.41984856128692627 0.003284761216491461 0.009273055326733814 0.19090211817142305 0.9815652763431332
-0.00662515452131629 0.1160881295800209 -0.04789382219314575 0.1328958856720678 -0.14886926885333485 -0.9798860262104517
0.0029391932766884565 0.3991406261920929 0.016222259029746056 0.16887552297316857 0.937677880533878 0.30371244639960554
0.0027545765042304993 0.2914137840270996 0.02372674271464348 0.11192213178013043 -0.6947992591788126 0.710441711797924
-0.0707383006811142 0.3771125376224518 -0.012498321011662483 -0.9480380405221457 0.13356525721305523 -0.2887632175131401
0.16669121384620667 0.13973304629325867 -0.2375302016735077 0.13690571455446068 0.8496585560842426 -0.5092515718141404
0.12457698583602905 -0.15834620594978333 0.037381771951913834 0.829881446477792 0.20958130910277245 0.5170807090452088
0.012777651660144329 0.14642389118671417 0.04278657212853432 0.7742660374148598 -0.10121192531476443 0.6247145343914847
0.09489089250564575 0.1472739577293396 -0.17420536279678345 0.3766902062541603 -0.6252211425124291 0.6835225025320315
-0.050743672996759415 0.31089353561401367 0.01471848413348198 -0.9367468054446985 -0.19253207663192967 0.29229577820582564
-0.04918953403830528 0.24229028820991516 0.06459755450487137 0.5396942343441554 0.6341414337756395 0.5537100101900381
-0.01989126019179821 0.08046063780784607 0.1744377464056015 0.017654136479595683 -0.9742098521757667 0.2249522068992228
-0.11054933816194534 -0.25115767121315 0.015585724264383316 -0.6246863933237271 0.05416408133030185 0.7789949693610596
0.10482949018478394 -0.13054046034812927 -0.010523110628128052 0.5881586172942753 0.04760102586802749 -0.8073435348343341
0.011705707758665085 -0.01739387772977352 -0.06381005793809891 0.18778728669317712 0.08613771174553271 -0.97842538273067
-0.0018941034795716405 -0.006995795294642448 0.053673502057790756 0.4208677995110456 -0.09193231569449094 0.90245151928831
0.02318601682782173 0.09441541135311127 0.20243296027183533 -0.1715213241049682 0.6060821299343877 0.7766884105942836
-0.0525684729218483 0.26947399973869324 0.037416838109493256 -0.1380492135026099 0.6726840907335223 0.726937775002321
0.09381823241710663 -0.15799735486507416 -0.03356818109750748 0.1817053625299473 -0.2638820509622595 -0.947285291983261
-0.1151520386338234 -0.4223572909832001 -0.04264991730451584 -0.07732113471233659 -0.971027932922429 -0.2261110249660369
-0.08051354438066483 0.1439482718706131 0.08055995404720306 0.7297813940714076 -0.38785895836000084 -0.5630138055919126
0.07699335366487503 -0.2086876481771469 -0.016972163692116737 -0.15852347744584122 0.40998741845013614 -0.8982096769747423
0.10462294518947601 -0.15879961848258972 -0.02976975589990616 0.643882488421072 0.06202176275665877 -0.762606479155039
-0.10078736394643784 0.13734175264835358 0.12219111621379852 -0.8243218562722673 0.4323058181412306 0.3655203918703919
0.004274506121873856 0.18078702688217163 0.0623471699655056 0.798508154183745 0.1102712706407228 0.5917980859831748
-0.10084738582372665 0.11864220350980759 0.13557069003582 -0.8489139360480665 0.17990694568330623 0.4969694357586623
0.07297096401453018 -0.07720686495304108 0.028794392943382263 0.4687510920600875 0.397419256792651 0.7888791720047199
0.059100642800331116 -0.09453213214874268 -0.045734237879514694 0.2074891149275485 -0.08614298198600437 -0.9744370958872314
0.03527722880244255 0.07801920175552368 0.0037456643767654896 0.9896113066622696 0.10362225698777806 0.09965886605292294
0.08289226144552231 -0.10129043459892273 -0.02550114318728447 0.7172457420584551 0.050268433412830764 -0.6950047698406364
0.02835899218916893 0.17177526652812958 -0.11968430131673813 -0.3220785839984407 -0.9359405604044322 0.14241015806253693
0.0625445619225502 -0.024473682045936584 -0.020803838968276978 0.9108766356949548 0.4111637608928797 -0.03532868909913822
0.03254753723740578 -0.1876598447561264 0.05843488872051239 0.025751350170010096 -0.582018679589373 0.8127675710641169
-0.009072275832295418 -0.028935905545949936 0.05538724362850189 0.42654536188767384 0.010262242426588438 0.9044079503368441
0.005298802629113197 -0.050183817744255066 0.04920556768774986 0.4084903438731682 0.09804547918099435 0.9074815276216646
-0.11013765633106232 -0.3237472176551819 0.0020769648253917694 -0.36095458795639573 -0.3505026331037022 0.8642104429018432
0.03497331961989403 0.08427704870700836 0.001966878306120634 0.9957193657052047 0.06226826742802413 0.06830525332020362
-0.05587686970829964 0.362039715051651 -0.02783319540321827 -0.6059029909496797 0.013458590858285128 -0.7954246864979372
0.06967858970165253 0.16962167620658875 -0.1939883679151535 -0.4113385274064377 0.5018549929040408 -0.7608825020779413
-0.09833917766809464 -0.3555367887020111 -0.038354210555553436 0.8586036197444532 -0.08778003623646526 -0.5050687967000606
-0.04445793852210045 0.36431628465652466 0.03277933970093727 -0.5699655728939 0.19670745922552493 0.7977752949300743
-0.051729828119277954 -0.20373965799808502 -0.03115292452275753 -0.05758203160077259 -0.885800593869442 -0.4604797688685916
-0.07522407174110413 0.25611335039138794 0.06363923847675323 -0.13108236113327296 0.917370873163335 0.37582987596952244
0.05699000135064125 0.18819457292556763 -0.1789473593235016 -0.3172874956939914 0.6719486644033852 -0.6691887906134878
0.051485124975442886 -0.1916276067495346 0.04393615573644638 0.058018020624556875 -0.8880347358910156 0.4561011040699014
0.07601739466190338 -0.20000165700912476 0.02989082597196102 -0.02648277096771756 -0.7604145830026255 0.6488977768484143
0.07161007076501846 -0.4191949963569641 -0.03671695664525032 -0.08655497718873065 -0.868051445761688 -0.4888710703599688
-0.09355887025594711 0.033453188836574554 0.02279205061495304 -0.9412771381740311 0.3359184881066297 0.03400174258860988
0.10471752285957336 -0.10126332193613052 0.019407788291573524 0.72944334022255 0.5482992823922916 0.40899915688552135
-0.10320506989955902 -0.3988858461380005 -0.049357615411281586 0.6941658336770208 0.034443688463138396 -0.7189905616074116
0.041438426822423935 0.21076756715774536 -0.13067951798439026 0.2173812392716738 0.7953070172944232 -0.5658905769271648
0.10055211186408997 0.14219234883785248 -0.1847274899482727 0.2534366509112111 -0.847195819104474 0.46693587147145643
0.007694455794990063 0.35451236367225647 0.04113920032978058 0.2226108794861314 -0.060296118182133776 0.9730409932097297
0.006513229571282864 0.39776790142059326 0.018552567809820175 0.18622494388397184 0.9178785800157543 0.35045567854391235
-0.013508881442248821 -0.04612554982304573 -0.0637407898902893 -0.056630009018286756 -0.10728974782385024 -0.9926136973115389
-0.0820837914943695 0.08237309753894806 0.02553080953657627 -0.9730210000584832 0.14868244735877637 0.17641899923929358
0.026312584057450294 -0.14379851520061493 0.054224926978349686 -0.09698468639564475 0.027138660156755118 0.9949158073574038
0.11075840890407562 0.14070793986320496 -0.19307079911231995 0.1446392210057002 -0.8639582937366215 0.482343821802011
-0.024043962359428406 0.3098224997520447 -0.022407785058021545 -0.14644500999684532 -0.1756563649899995 -0.9734981769297383
0.04801401123404503 -0.04253184050321579 -0.04963882640004158 0.6101831391761386 0.02822476994561963 -0.7917574748789367
-0.0935634970664978 0.19575506448745728 0.05969345197081566 -0.9471657311551067 -0.30327118944791986 -0.1044206080055853
0.0038777580484747887 0.2959345281124115 0.030278492718935013 -0.008333944623782924 -0.6331902694349228 0.7739513085846793
-0.039283182471990585 0.04165669158101082 0.06576402485370636 0.0685082207116894 -0.0005241284485819211 0.9976504142154645
0.0810760110616684 -0.11686120927333832 0.0445626936852932 0.08553687103518628 0.4367035474359278 0.8955297065705784
0.03852817043662071 0.19724786281585693 0.0026296197902411222 0.8668236024574031 0.4566698800943703 0.2001735817668341
-0.06852062791585922 0.13265246152877808 0.11065507680177689 0.9620270062003596 -0.22698471854202948 -0.15159807680036405
-0.10547800362110138 -0.42209571599960327 -0.015035567805171013 0.09981110991788066 -0.9778364552696363 0.1840478445477524
0.03152012452483177 -0.05604618042707443 0.040142741054296494 0.40263619598776434 0.2513651994867706 0.8801702279488205
0.024898560717701912 0.3340078294277191 -0.018211355432868004 0.6549663747782685 0.03920110428712033 -0.7546405245760947
-0.014277075417339802 -0.0691613256931305 0.059894587844610214 0.41165031437779914 0.04704428335073271 0.9101268340603277
-0.05928082391619682 -0.021145494654774666 -0.050447430461645126 -0.45394501568102574 0.1794854604387833 -0.8727650842176441
0.03537409007549286 -0.38994893431663513 -0.00897536426782608 -0.3508452994866091 0.07367345758428145 0.93353082299179
-0.11961331218481064 -0.107889823615551 -0.03127278387546539 -0.7358577738517714 0.3172877239211432 -0.5981988272396191
-0.1241087093949318 -0.11001214385032654 -0.026744449511170387 -0.8875467809905713 0.2367859809405964 -0.395212741170214
