ply
format ascii 1.0
comment VCGLIB generated
element vertex 393
property float x
property float y
property float z
property float nx
property float ny
property float nz
element face 0
property list uchar int vertex_indices
end_header
-0.07535452395677567 -0.28960222005844116 0.0021444549784064293 0.8131118310034604 -0.40881054136351125 0.41439484981388597
0.02828368730843067 0.17852917313575745 -0.11127331852912903 0.21232751500959124 -0.8471487469707554 0.4870893417800587
-0.047186121344566345 0.24229149520397186 0.06406474113464355 0.5754697145273081 0.6225406298439425 0.5303562687999135
-0.022936547175049782 -0.16909517347812653 0.056934669613838196 0.28214067013214317 -0.29047125486955677 0.9143429839791467
-0.10774340480566025 0.11858826875686646 0.09788133949041367 -0.8220076154296188 -0.23744190006323707 -0.5176145518337671
-0.05395510792732239 0.08456000685691833 0.1623394936323166 -0.5623842988413564 -0.6371360476290864 0.5270498621841224
-0.07765424996614456 0.12319932878017426 0.1133403554558754 0.9356913527819375 -0.011745278788056604 -0.3526240785245653
-0.11267737299203873 -0.3462064564228058 -0.002658283105120063 -0.23325187127333463 -0.2932123640534696 0.9271569846113782
0.0661386176943779 -0.26149216294288635 -0.0405154787003994 0.14249629749083526 0.09543859938335898 -0.9851833732606059
0.09521535038948059 -0.22554633021354675 0.009766548871994019 0.7289089091942006 -0.42012766266373835 0.540540978244966
-0.08618807047605515 0.22041158378124237 0.09967057406902313 -0.22865488282915503 0.3671649733781634 0.9016134575762488
-0.06380853056907654 -0.07973360270261765 0.07270713895559311 -0.2621391350299282 0.13058356060385984 0.9561542802214396
0.05796845629811287 -0.02399459108710289 0.0029496836941689253 0.8380092055559923 0.2892039797000559 0.4627111729027777
-0.10082274675369263 -0.1554233580827713 -0.0594811849296093 -0.20625838294119625 0.15689881571103467 -0.96583654988562
0.031032001599669456 0.11364296078681946 0.006430984474718571 0.9888247864057077 0.08289518741235902 0.12391097487138282
0.1092149019241333 -0.10459371656179428 0.0023877411149442196 0.921228383955073 0.3868787926187986 0.04078068681797125
-0.10898299515247345 -0.20387795567512512 -0.0008975766832008958 -0.7351344960117868 -0.4766940879666196 -0.4820166172147689
-0.032983001321554184 -0.05742000788450241 -0.06358741968870163 -0.4139957007418727 0.038900955079565834 -0.9094472362161224
-0.08936575800180435 0.13732820749282837 0.022222047671675682 -0.9905330597796372 -0.13435825332039047 0.028144577600017
0.02476324327290058 -0.40387827157974243 -0.030298296362161636 -0.46673207485369267 -0.8808725016548778 -0.0788974405861447
-0.052604202181100845 0.3100922405719757 0.01965683326125145 -0.7819580362254451 -0.03241098262398484 0.6224878776231658
-0.1308359056711197 -0.1390461027622223 -0.030617382377386093 -0.9130948653944407 0.2754511268457248 -0.30064005639589775
0.06328805536031723 -0.11098387837409973 -0.04652290791273117 0.032570170373970087 -0.34503094004151663 -0.938026030777333
0.03786921501159668 -0.11583240330219269 -0.034196387976408005 0.1063735710551703 -0.5243108638272719 -0.8448566632593193
-0.09445662051439285 -0.007240697275847197 0.029439546167850494 -0.9342507390499029 0.07856270254277935 0.347855513617199
0.06814688444137573 -0.10439758747816086 0.035618800669908524 0.3253926415035776 0.31783217220952786 0.8905629338591952
-0.11191477626562119 -0.399492084980011 -0.002949367742985487 -0.5917066442266814 0.5305299902038115 0.6069770808460095
0.045802757143974304 0.2035655528306961 -0.1341545283794403 0.7266573578226646 0.6849606687405866 -0.052895808913680835
0.08107089251279831 -0.2869275212287903 -0.023398105055093765 0.8637121023109312 -0.2560144110370887 -0.43411752517373
-0.0712955966591835 0.241459459066391 0.08778459578752518 0.38667762332603745 0.5551263469930723 0.7364205011357671
-0.11644136905670166 -0.08897992223501205 0.03732097148895264 -0.8643969988127622 0.44863582622945997 0.22703242910848556
-0.06053827330470085 -0.20601215958595276 -0.007884515449404716 0.3917278398991689 -0.13441165906963728 -0.9102103083101613
-0.14195352792739868 -0.13976788520812988 0.02025469020009041 -0.9182355318084608 0.3840522578483344 -0.09668180473092898
0.06186430901288986 0.19140422344207764 -0.17915411293506622 0.11518909166954333 0.9132669471089947 -0.3907364283997108
-0.09323036670684814 -0.22863467037677765 0.030441034585237503 -0.36173872135503227 -0.17080662412132072 0.9164988786838225
-0.07411953061819077 -0.234164759516716 -0.01425311528146267 0.21898748749369498 0.13754074987509565 -0.9659850011490837
-0.12182747572660446 -0.3960249125957489 -0.019234193488955498 -0.8406822632487408 0.15872758731373895 0.5177440345233678
0.06190112978219986 -0.05726638063788414 0.020790014415979385 0.4881876897986462 0.4837102072360742 0.7264277079962569
-0.007909948006272316 -0.056858401745557785 0.05745865777134895 0.48773653450504967 0.06651377612259673 0.8704533247078315
-0.048969246447086334 0.38766199350357056 0.020722035318613052 -0.6054319911393928 0.6307923605271133 0.4853381316212674
-0.06707166880369186 0.18287095427513123 0.07018325477838516 0.19103323111416107 -0.794107152451348 0.5769749864904847
-0.08363597095012665 -0.00676720729097724 0.04891242831945419 -0.7340295192172994 0.0813717472793088 0.6742249651728515
0.053700413554906845 -0.23466266691684723 -0.030975623056292534 -0.5139336133021333 0.46457015306794985 -0.7211427140286693
0.12738974392414093 -0.1579163372516632 0.014879700727760792 0.9956451449587186 -0.01871316185077061 0.09132668226580506
-0.023583337664604187 0.21284912526607513 0.06669575721025467 0.5715638027198943 0.4326169672598806 0.6972498684540841
0.12364251166582108 0.15509794652462006 -0.19818361103534698 0.41450552946766944 0.0409783662482677 0.9091237207005161
-0.0720784068107605 0.3653620779514313 -0.0013080425560474396 -0.9837420947296802 -0.005152917791983492 0.17951305939983875
0.023499947041273117 -0.387701153755188 -0.012881872244179249 -0.5084335565554355 -0.03843268446408473 0.860243132685914
0.023431578651070595 0.3412116765975952 -0.013974211178719997 0.5619206868266488 -0.009472542096298442 -0.8271368766186775
0.014754916541278362 0.18520072102546692 0.03865163028240204 0.7960121456166293 0.183999826326392 0.5766356977699766
-0.08048076927661896 0.17489589750766754 0.07416708022356033 0.8204042448583267 -0.527014612031251 -0.22179376394296746
-0.06504613906145096 -0.4200412631034851 0.040811508893966675 -0.2616769640411227 0.94789158245475 0.1817325353415039
-0.03662433102726936 0.19647395610809326 0.07838628441095352 0.16357553837289238 0.16189754982497798 0.9731558079807607
-0.0671541765332222 0.1932745724916458 0.08610313385725021 0.7573450491869306 -0.5215799977213617 0.3929157447202006
-0.08978703618049622 -0.4211462736129761 0.04290114715695381 -0.09306376015967721 0.9909952981474137 0.09626762485207968
-0.05744568258523941 -0.20198246836662292 0.03805936127901077 0.19804682777441115 -0.5193141381324821 0.8313183986561408
0.045347679406404495 -0.11694104969501495 -0.03445712849497795 -0.03685857571121823 -0.5869945163681434 -0.8087514347129593
-0.022367820143699646 0.2685801684856415 0.029462873935699463 0.771333300307675 -0.10976936188993247 0.626893632944814
-0.05804120749235153 -0.08108031749725342 0.07408355176448822 -0.18428990940532763 0.09607487199234803 0.9781650414234963
0.06672555208206177 -0.41119685769081116 -0.04177132993936539 0.3960312086808554 0.32427840532610974 -0.8590708920630102
-0.06431234627962112 -0.2577621042728424 -0.001972661819308996 0.9692541829894677 -0.1156569266251896 -0.21718610471444763
0.01443916093558073 -0.057620562613010406 0.045835141092538834 0.45376554261957586 0.14057109041167265 0.8799639770306711
-0.0686802864074707 0.2287685126066208 -0.025526920333504677 -0.7732806409469893 0.21134210022626915 -0.5978056264443845
-0.013187611475586891 0.4027874767780304 0.012568263337016106 0.00021629539259268655 0.9781640090130199 0.2078343683991653
-0.04563324898481369 0.11071103811264038 0.15675519406795502 0.2634127626865855 0.8534142001040286 0.4497754100822119
0.08640219271183014 -0.06051825359463692 -0.01365596428513527 0.8798402318049848 0.4696134546781914 -0.07310519600250685
-0.03613831847906113 -0.024773554876446724 0.06818971037864685 0.18856048290015898 0.11313315067682193 0.9755233644082516
0.02085854485630989 0.2973777949810028 0.023806072771549225 0.5728657361502671 -0.5203611956910328 0.6332843550601983
-0.01829223334789276 -0.043247073888778687 -0.0678182989358902 -0.2021083378448229 -0.022809751876959706 -0.9790975104620145
0.022524822503328323 -0.09066063165664673 0.05084843188524246 0.2610106604988513 0.20095160596628522 0.9441884807418084
0.013232761062681675 0.1379699409008026 0.03849691525101662 0.7821783961300764 0.09927562906720806 0.6150945505373067
0.060435712337493896 -0.3118622899055481 -0.03705373406410217 0.5315486701773517 -0.2170566275179905 -0.8187444239096872
-0.11906334012746811 -0.264232337474823 0.0009876987896859646 -0.9759138469307094 0.2157633718940833 0.03222313947770489
0.10189460217952728 -0.1431664377450943 -0.027025295421481133 0.832083420391008 0.3608927689305289 -0.42118118529209825
0.14878597855567932 0.10781001299619675 -0.22386547923088074 -0.47099575564564683 -0.6564045376812162 0.5893183189714155
-0.06823471188545227 -0.07275319844484329 0.07056685537099838 -0.31474638942254074 0.16590057228599986 0.934564984610836
-0.0859539657831192 0.04585859179496765 0.02706841379404068 -0.9973172176899984 0.06846295831789305 0.025907347171080525
0.0684574544429779 0.1505839079618454 -0.1738157868385315 -0.10410595966339241 -0.9192432311926289 0.3796759553475821
0.036512892693281174 0.16550502181053162 -0.01464063674211502 0.8908459443141409 -0.23120034520213523 -0.39107531739737833
-0.07175015658140182 0.20641304552555084 -0.026571113616228104 -0.7514645756215085 0.08562926826906214 -0.6541931060487349
0.16134512424468994 0.12935182452201843 -0.22068218886852264 0.6295291428581403 0.23639964309209757 0.7401407075943223
0.07796184718608856 -0.27340391278266907 0.0014034888008609414 0.5394267804285523 -0.35976034246468175 0.7613089021850338
-0.12523409724235535 -0.16259483993053436 0.06862011551856995 -0.22893683483556376 0.08009017480994317 0.9701409637544365
-0.037610918283462524 0.10996998101472855 -0.0437292642891407 -0.3264277944667332 -0.05323137769024971 -0.943722054118045
-0.012101766653358936 -0.059630297124385834 0.06007954478263855 0.48847342474434735 0.0704785040283011 0.8697278274198551
-0.04277573525905609 -0.21038368344306946 0.029966074973344803 0.4613610536510094 -0.42805800222729756 0.7771179607390409
-0.07715947926044464 0.15230652689933777 0.11365138739347458 0.7063313967482763 0.14587488226322778 0.6926878638263548
0.11003907024860382 -0.1581777036190033 -0.029307430610060692 0.9121078000061442 -0.0341841007595875 -0.4085227146967596
0.09884730726480484 -0.432429701089859 -0.009146695025265217 0.4185330170189965 0.9066180983581914 0.053607251322496156
-0.00021687023399863392 -0.05087526887655258 0.05293779820203781 0.4905637732656541 0.10174558678203616 0.8654449837683174
0.024430643767118454 0.19959209859371185 -0.03594369813799858 0.8940227624108726 0.09442547667324988 -0.4379579085326145
0.036314722150564194 0.048058945685625076 0.028339212760329247 0.8688111167541909 0.1479185149829269 0.4725329156043856
0.038774438202381134 0.05076202377676964 0.021735891699790955 0.8955614478121553 0.22052569450677456 0.3864428952056189
-0.04298858717083931 0.34746479988098145 0.03746410831809044 -0.47288391907065513 -0.07357193701105418 0.8780478171311741
-0.08265917748212814 0.26206400990486145 0.020368248224258423 -0.6036489535532529 0.7406499419089496 -0.29503492068623427
0.03984633833169937 0.1869828999042511 -0.009833806194365025 0.9809339126449582 0.16681328583189747 -0.09970951154739027
-0.04128197208046913 0.32917407155036926 -0.02624903805553913 -0.19058557734416742 -0.37236118774916427 -0.9083084737942403
-0.08109186589717865 0.11558092385530472 0.042061422020196915 -0.8743444701919065 -0.2058446555553798 0.4394880262579647
-0.06697079539299011 0.002761010080575943 0.06197739765048027 -0.4744466963220894 0.0687986133657192 0.8775916380344615
0.060336511582136154 -0.12033779174089432 -0.04050319641828537 -0.19211301520282587 -0.5160140675646141 -0.8347586905597932
-0.07608882337808609 0.063783660531044 -0.00763006042689085 -0.8429277684855473 -0.030549627203116287 -0.5371587264428701
-0.039739783853292465 0.25419899821281433 0.04777572304010391 0.46409703308164624 0.6297145934518236 0.6229554355478552
-0.10431113839149475 -0.05793522670865059 0.03260844573378563 -0.8663466337133429 0.3332243999101799 0.372028237581584
-0.05534140020608902 0.011089217849075794 0.06608442217111588 -0.24501619645093348 0.051364440332802144 0.9681574033936918
0.031015129759907722 -0.1104901134967804 0.0526578351855278 0.2299721743074445 0.14421494145232197 0.9624525181567192
-0.08663640171289444 -0.2147808074951172 -0.01135032158344984 -0.07724181576977968 0.1528701029142128 -0.985223037454761
-0.14701148867607117 -0.157675638794899 0.019248494878411293 -0.9780102097436022 0.12806644473299936 -0.16460563590207053
-0.03633985295891762 0.09854533523321152 -0.04269097372889519 -0.31226578636597413 -0.10406450312321161 -0.9442778499228704
0.02284880541265011 -0.38092005252838135 -0.05003604292869568 0.1879979029863042 0.16229230013086124 -0.9686681566929858
-0.1327284276485443 -0.15260320901870728 -0.030902845785021782 -0.9687324913587191 0.016186670311601137 -0.24757898111542676
0.043227385729551315 -0.2424728125333786 0.001078337780199945 -0.8640157947614219 0.3206689193088338 0.38813419147518213
0.0701720118522644 -0.09140622615814209 -0.04587119072675705 0.5272533921958278 -0.05053664011382153 -0.8482039309175587
0.039239782840013504 -0.2517895996570587 -0.026689449325203896 -0.8233480477821279 0.4041221636305963 -0.39847618382518746
0.027987174689769745 0.0751328244805336 -0.03457535803318024 0.598898259090467 0.36266455017115184 -0.7139995093188538
-0.08613105863332748 -0.22198469936847687 0.033156342804431915 -0.27960361409514645 -0.22062055602142774 0.934424094962094
-0.12808428704738617 -0.19176627695560455 0.02510024607181549 -0.345924925991413 -0.9379625462504292 0.023710913294245545
-0.04595179110765457 0.21963980793952942 -0.054315704852342606 -0.6938483289354563 0.05950804096289529 -0.7176581982352275
-0.11546824872493744 -0.282988578081131 -0.02646917663514614 -0.6350882919141108 0.23856111313389045 -0.7346777911261074
-0.10696260631084442 0.13717207312583923 0.12069950252771378 -0.7564851324570233 0.4159623149814421 0.5046836602137614
0.03154900297522545 0.0556030198931694 -0.04247814044356346 0.5800321442625809 0.26835080189051985 -0.7691232402852404
-0.06111231446266174 -0.18367667496204376 0.06439578533172607 0.13778190621739814 -0.397416578541309 0.9072354762792402
-0.0011039386736229062 0.15819703042507172 0.058712366968393326 0.7274145432493129 -0.20282222101299194 0.6555388843789136
0.027739085257053375 0.21414455771446228 -0.017609253525733948 0.9277353598462879 0.3715452142499168 0.035514164200529906
-0.11576085537672043 -0.38774919509887695 -0.053868718445301056 -0.4544182387915379 0.15841635846161464 -0.8765890266398263
0.005553555209189653 -0.36619850993156433 -0.04283451288938522 -0.8232814482669922 0.5289553468163523 -0.20594634741552525
-0.07899194955825806 0.12049710750579834 0.12084583193063736 0.9142126548540633 0.17763211664975595 -0.364228023138271
0.06517868489027023 -0.12104897201061249 0.042484626173973083 0.2057045297348718 0.41391721675731863 0.8867683937299696
-0.04485394060611725 0.11086365580558777 0.14936991035938263 0.5084730313276478 0.8176193045820142 -0.27009970230878894
-0.019234243780374527 0.23602773249149323 -0.07899541407823563 -0.6503354046714581 0.1043524854785748 -0.7524456260788912
0.06709781289100647 -0.09636985510587692 -0.047135479748249054 0.39811365746598015 -0.16505472804772542 -0.9023649220177786
-0.020316211506724358 0.40106675028800964 -0.011783641763031483 -0.02340345180786572 0.9101343675205479 -0.41365167895398325
-0.036083921790122986 -0.0404774472117424 -0.061951376497745514 -0.4151914059157279 0.0010759401642293257 -0.9097334438210373
-0.08236579596996307 0.2065800279378891 -0.014739206060767174 -0.7450416204591753 0.0978524565796055 -0.6598013947582275
0.009794286452233791 0.36668574810028076 0.04015534371137619 0.3279762086872567 0.06996334336220104 0.9420916819082503
-0.09825407713651657 0.09038875997066498 0.13089171051979065 -0.4841682794364153 -0.873179379010409 0.05602543403292587
0.06144234538078308 0.15885765850543976 -0.16425994038581848 0.10520847726803108 -0.6714349517927606 0.7335572791691154
0.10665157437324524 0.17154407501220703 -0.20551371574401855 0.20699970511697713 0.9611753006452005 -0.18246414308321754
-0.009104586206376553 0.21960218250751495 0.04123321920633316 0.7124089232083725 0.49292902763946567 0.4994942440544216
-0.09063145518302917 -0.4181770086288452 0.05001243203878403 -0.11665800059740365 0.9613755646419869 0.2492948748087637
-0.0795758068561554 0.11476806551218033 0.1532249003648758 -0.2336480922131513 0.5168741804266691 0.8235591360754939
0.028395483270287514 -0.3405568599700928 -0.015320075675845146 -0.6293091540899985 0.04792624372256397 0.7756758754410092
0.01956404373049736 0.3408033847808838 0.03347425535321236 0.6422444983387885 -0.014449191398547882 0.7663636377213405
-0.017889050766825676 0.277665376663208 0.026146598160266876 0.7239068330177314 -0.20653074565887208 0.6582582686209332
0.052723951637744904 -0.026082701981067657 0.012698334641754627 0.8142349704040954 0.255379400587369 0.5213470770289961
0.07833211869001389 -0.21298764646053314 -0.025604186579585075 0.3113939301564444 0.3129375634869276 -0.8972758224874828
-0.04257762059569359 0.07951440662145615 0.14414678514003754 0.2368654288894806 -0.7454944697841619 -0.6230030209543399
-0.029878664761781693 0.3916722238063812 -0.025695202872157097 -0.02319499418262196 0.7252535954183462 -0.688090992949065
0.015163080766797066 0.13319574296474457 0.03686505928635597 0.7777267844807899 0.11516508388533675 0.6179628242498528
-0.05832040309906006 0.14990322291851044 0.07031907886266708 -0.3185269687387204 -0.1910533734235053 0.9284606500491127
-0.10113568603992462 -0.317539781332016 0.01004523690789938 0.0995500326515171 -0.4613192004787071 0.8816316613352588
-0.11692623049020767 -0.37755122780799866 -0.014854415319859982 -0.699404270671704 -0.032916305199812555 0.7139679145579124
-0.06193703040480614 0.2632003724575043 0.0489334911108017 0.09960471031227809 0.7387613054668482 0.6665663021999578
0.016225863248109818 0.1798766404390335 0.03757331892848015 0.7890557624385671 0.004238690069016026 0.6143069568782291
-0.01907837763428688 0.2726439833641052 0.0272518377751112 0.761440743885774 -0.1683705155336505 0.6259867115599276
-0.022010821849107742 0.27660703659057617 -0.02240206114947796 0.2092096458730115 0.3692564243402799 -0.9054728141458033
-0.06341075152158737 -0.0814068391919136 0.07291173189878464 -0.22716611970957543 0.1048934199347338 0.9681905414279209
-0.08021677285432816 -0.30435410141944885 -0.003358480054885149 0.8462607705457046 -0.4160036929668686 0.3328417577067484
-0.005762412678450346 0.17994138598442078 0.0704713836312294 0.68739040880439 0.10845739735211912 0.7181444275654711
0.07483479380607605 -0.41573360562324524 -0.0038296186830848455 0.37164053320981855 0.8270371965110208 0.42177338662214453
-0.12035921961069107 -0.10229361802339554 0.018522366881370544 -0.9425235930628422 0.3332108927123785 -0.02489533084194063
0.16875305771827698 0.11730755120515823 -0.25356724858283997 0.7929513013349775 -0.12936926359774253 -0.5953921626519313
-0.015110637061297894 0.39866387844085693 -0.015767613425850868 0.023586176966985884 0.8561922397059949 -0.516118727545624
-0.02744843065738678 0.08252904564142227 0.15016527473926544 0.5501545120674621 -0.39115525734223644 -0.7377855904701185
-0.09813566505908966 0.19517560303211212 0.09738695621490479 -0.7202661927591181 0.27418512182526467 0.6372119981120489
0.1044437438249588 -0.09471559524536133 -0.011953962966799736 0.8788122506663472 0.31187380508644963 -0.3611422957500946
-0.12245991080999374 -0.10114232450723648 0.03624517470598221 -0.875731298173194 0.47996270585166223 0.052254132769029356
-0.020154858008027077 -0.1207323893904686 -0.05980299413204193 0.0076086148018950535 -0.318146139692678 -0.9480111511893957
-0.0269638542085886 0.2323301136493683 0.05403830111026764 0.6158120498783857 0.5584575613886334 0.5557883332280749
0.00494364183396101 -0.11678087711334229 0.05686190351843834 0.24711455423694917 -0.04451186723439598 0.9679633726332735
-0.09280351549386978 -0.18954716622829437 -0.03710299730300903 -0.031196964209479143 -0.9730943716688271 -0.2282851139486831
0.06236054748296738 -0.06615228950977325 0.026019318029284477 0.4813709906908569 0.4554811177710044 0.7488784418551381
-0.11362437903881073 -0.11193815618753433 0.0592077411711216 -0.5280795228755123 0.36860550045175533 0.765024184295034
-0.010671446099877357 0.09235578775405884 0.18244536221027374 -0.3244326492249772 0.8414670641761802 0.4320609170285865
-0.06084403395652771 -0.2029024213552475 -0.007733225356787443 0.40945538720682706 -0.29283696488282657 -0.8640560154790438
-0.11144516617059708 -0.3712252676486969 -0.009278077632188797 -0.2954524336297365 -0.11403173220461339 0.9485276081974006
0.03198442608118057 0.14786158502101898 0.0039208498783409595 0.9576946695247052 -0.18801862483039855 0.21787592037866785
0.011702434159815311 0.2867373526096344 0.004649031907320023 0.43222590494236035 -0.8270456187469029 -0.35941106216741636
0.04428815469145775 -0.37084880471229553 -0.03526953235268593 0.81428699658932 0.020600588235519662 -0.5800968048092451
-0.047647979110479355 0.2392544001340866 -0.050216034054756165 -0.7277243979373638 0.26468041502467204 -0.632741241384714
0.061422958970069885 -0.028233684599399567 -0.002062371000647545 0.8242749926307424 0.38644720955317524 0.41379861134633344
-0.050976481288671494 0.03259461000561714 -0.03646392002701759 -0.5488647859949989 0.33357315454275466 -0.7664700889552439
-0.07633378356695175 0.12968355417251587 0.11209020763635635 0.9914985432216641 -0.10750844943017451 0.07329783141701897
-0.10828287154436111 0.11527550220489502 0.10081414133310318 -0.8589592839499304 -0.4349642875571346 -0.2701759002319365
-0.07731534540653229 0.10064884275197983 0.04104624688625336 -0.8565560745169972 -0.19354612989894626 0.478384350506131
0.054112255573272705 0.07554956525564194 0.18842461705207825 0.9259840608982746 -0.12304452453550668 0.35695036621941134
0.029180390760302544 0.1875908523797989 0.020053522661328316 0.7178962373088433 0.38018849183464815 0.5831652451358026
0.07886730134487152 -0.07923061400651932 0.022877098992466927 0.5288861983420041 0.3647524609521307 0.7663126199095945
-0.01563815027475357 -0.03944737836718559 0.06115151196718216 0.4892952478341389 0.04953381961689447 0.8707103773133118
0.03432987630367279 -0.3783376216888428 -0.00917882937937975 -0.12530507751111652 0.05115462833917973 0.9907985877812976
0.018360503017902374 0.20595310628414154 -0.06147390231490135 0.8221104627160456 -0.546592160730143 -0.1592840133885478
0.009167082607746124 0.3174261450767517 -0.02050730586051941 0.2758001603940488 -0.29119463704934406 -0.9160458257534488
0.06014416739344597 -0.2009129375219345 -0.014261572621762753 -0.6679635356323459 0.2755978030554032 -0.6912818282123225
0.062374819070100784 -0.09116106480360031 -0.049363017082214355 0.32468567875121385 -0.09174930007225583 -0.9413613949754446
0.026117583736777306 -0.06367311626672745 -0.06353078037500381 0.21383636275692872 -0.20714043596320408 -0.9546553565302303
-0.0588911697268486 0.3868277668952942 0.0073212264105677605 -0.5639815631017979 0.7175968328740637 0.4086313521138167
0.041811324656009674 -0.18783245980739594 0.0014027419965714216 -0.08972158783135845 -0.8550650653857922 -0.5106992957052232
0.04586383327841759 -0.37024471163749695 -0.013055435381829739 0.4947905524285885 0.10557792632031296 0.8625749884510419
0.0286613367497921 -0.02760748565196991 0.03764888271689415 0.5376242067964896 -0.023344757221095705 0.8428613376924663
0.018905119970440865 0.11874066293239594 -0.0312355887144804 0.756322029939984 -0.02399366059325432 -0.6537593527275902
-0.019511457532644272 0.39600902795791626 0.02802114747464657 -0.07589598260132407 0.7976741957030309 0.5982939723367624
-0.11229220032691956 0.11847510933876038 0.10675675421953201 -0.9068757301108143 -0.3006977535567781 -0.29522410325358683
-0.06426533311605453 -0.20791567862033844 -0.009325671009719372 0.27591103522273436 -0.12802191118502387 -0.9526192790925728
0.04807824268937111 0.018991094082593918 -0.0388280525803566 0.9083687434924743 0.2322165597756043 -0.34776672527987307
-0.004194720182567835 0.3624260127544403 0.04334685206413269 0.11687260647960229 -0.019856392059370877 0.992948396216565
-0.012920968234539032 -0.15102121233940125 -0.043347444385290146 -0.012582718903927323 -0.532905705234448 -0.8460810744329178
0.044530659914016724 0.0888044685125351 0.18547451496124268 0.6708182173897027 0.7291489900673505 -0.1354424951847261
-0.04118753969669342 0.20217518508434296 -0.058725785464048386 -0.602541171619377 -0.06231260438407904 -0.7956514788765378
-0.05362410098314285 0.04564967751502991 0.06295711547136307 -0.36044506275139127 0.07272269162556559 0.9299412706514744
-0.048826705664396286 0.24110430479049683 -0.047991614788770676 -0.7225793807060132 0.26390263019545707 -0.6389322658579971
-0.027625609189271927 0.07236190885305405 0.06586266309022903 0.06286737754216938 -0.006835428130955337 0.9979984818441544
0.07919216901063919 -0.4254758358001709 0.003868890693411231 0.31785366110152674 0.9079558448596474 0.27310297308810066
-0.11053141206502914 -0.10423953831195831 0.05748151242733002 -0.5348328507329018 0.37487927787334985 0.757244576605256
0.0284823477268219 0.12169487774372101 0.017580021172761917 0.9405718298443116 0.05481535256492122 0.33514162681843446
-0.11024871468544006 -0.4131042957305908 -0.05369747057557106 0.19816746527735485 -0.5932520624254284 -0.780244606603291
0.009151975624263287 -0.18095433712005615 0.048815641552209854 -0.1575396095768924 -0.21996450517284133 0.9627029073802714
0.07219554483890533 -0.23335739970207214 -0.033327069133520126 0.05098098723663196 0.2903085968138354 -0.9555740984122374
0.005563004408031702 0.22973163425922394 0.010919593274593353 0.7488734170262141 0.48089775522833306 0.45598898483168687
-0.03665580973029137 0.08626050502061844 0.14302633702754974 0.40019969437169417 -0.41967454348688055 -0.8146861249425333
0.057565219700336456 -0.186728835105896 0.0488874614238739 0.11633497250435007 -0.6905598023065083 0.7138580626502782
0.07452967762947083 0.18570080399513245 -0.1753133237361908 0.49185066612141337 0.858960742385886 0.1423705210913052
0.04824186488986015 -0.2826918661594391 -0.04225045442581177 -0.17287621169440562 0.04155670828717803 -0.9840664893321617
-0.07008550316095352 0.3643759787082672 -0.0114689776673913 -0.8836554961806229 0.008871594396364927 -0.46805369230745697
0.04024225100874901 0.03980029746890068 -0.039038658142089844 0.7733847077984468 0.31426871934603046 -0.5505554157249904
0.064590685069561 -0.023609962314367294 -0.01590971276164055 0.8608163667448839 0.44501756887802696 0.24688974489441282
-0.03544235602021217 0.038677431643009186 0.06568129360675812 -0.035451541193935135 0.06805118432140389 0.997051766228529
-0.05186797305941582 -0.20211094617843628 0.03668228164315224 0.24805105694092874 -0.5256793891830431 0.813714847436515
0.07590534538030624 -0.29944536089897156 -0.023235293105244637 0.8150517283647131 -0.4534574255049527 -0.3606480879529441
-0.10312089323997498 0.19195520877838135 0.016324734315276146 -0.957274530680867 -0.10616656964646067 -0.2689872346399155
-0.0009981602197512984 0.3946012556552887 0.02827903814613819 0.1360743114305122 0.8330259788188059 0.5362382869412464
-0.04789500683546066 0.2758997976779938 0.03514694795012474 0.23984003204641613 0.6079289168775893 0.7569010444252373
-0.11731947213411331 -0.16721458733081818 -0.05436499044299126 -0.5541713771505639 -0.11691695279461849 -0.8241507816511906
-0.11117085069417953 -0.3032917082309723 0.011702017858624458 -0.5908704941835 -0.2690032663124977 0.7605979896216885
0.09288237988948822 -0.08684637397527695 0.01641509123146534 0.6842720637762639 0.45745257987660115 0.5678986528418732
-0.06627325713634491 0.03250833600759506 -0.022751830518245697 -0.6454226892565362 0.3875509211379069 -0.6582050104017902
0.007020438089966774 0.15322645008563995 -0.04480336979031563 0.561824436776179 -0.09527382563541831 -0.8217519092706274
0.013700218871235847 -0.10707131028175354 -0.05478324368596077 0.4236830594481531 -0.3172532643452747 -0.8484356377468595
-0.12113671749830246 -0.419871062040329 -0.036051418632268906 -0.41701000942944993 -0.9076416730960565 0.04784605830203088
-0.08835194259881973 0.03385527804493904 0.029650237411260605 -0.9678248828576539 0.20133154716041227 0.1509324492598045
0.030439967289566994 0.10367905348539352 0.014613078907132149 0.9645079641940177 0.07276072976662673 0.25383117068267896
-0.10519073903560638 0.16790980100631714 0.09763450175523758 -0.8807270091216475 0.25406316874364926 0.39971470036961804
-0.14484289288520813 -0.17635031044483185 0.02634049952030182 -0.8948413385486971 -0.35351281859223943 -0.2725576377857477
0.04160144552588463 -0.25121983885765076 -0.02980935387313366 -0.7557899294811605 0.4481497173405174 -0.477434197918914
0.036174993962049484 -0.31118282675743103 -0.04105693846940994 -0.2955657633773983 0.09168571041732229 -0.9509125143904705
0.022691775113344193 -0.32640862464904785 -0.025190407410264015 -0.9301626616720653 0.22699231692380595 0.2885687281891464
-0.133304163813591 -0.13606798648834229 -0.004042209591716528 -0.8853092186405667 0.4244154536990629 -0.18999765801569213
0.0756884291768074 -0.2426266372203827 -0.034512802958488464 0.31509699547274406 0.20705646331793973 -0.9261973355836846
0.09868193417787552 -0.12873472273349762 -0.019376283511519432 0.6527954584518243 0.1585581885460553 -0.7407546086725795
-0.0373900830745697 0.27815353870391846 -0.02388128824532032 -0.26336230674179056 0.3091778297132057 -0.9138103550526635
0.023447977378964424 -0.18812142312526703 0.054427407681941986 -0.22942568020130047 -0.3201065366467284 0.9191820616505783
0.010831305757164955 -0.022806156426668167 -0.06982030719518661 0.041074545045838635 0.04241074540273064 -0.9982555837177483
0.018476247787475586 -0.37680479884147644 -0.01605774648487568 -0.4824655712872693 0.03201908548178548 0.8753295097775231
-0.09007421135902405 -0.0034865529742091894 0.03790705278515816 -0.8595236982580673 0.06418531062534254 0.5070495617123669
-0.11560481786727905 -0.1976984590291977 0.051823269575834274 -0.11925421731133337 -0.9843744488593626 0.12955838871446088
-0.11066275835037231 -0.12110455334186554 -0.03993618115782738 -0.5735828357973058 0.46559325402739066 -0.6739626490265663
-0.02893737144768238 0.2196425050497055 -0.06784927099943161 -0.613097403963521 -0.08871144664239891 -0.7850107339952772
-0.08158881962299347 0.012588899582624435 -0.017046546563506126 -0.7164906817128534 0.31974798659121334 -0.6200018774887025
-0.07829529792070389 -0.19394831359386444 -0.018500113859772682 0.06794946018008814 -0.7086928967910305 -0.7022373166524067
-0.06109726428985596 0.08858361095190048 0.1276017278432846 0.42347711418561873 -0.2046549021934812 -0.8824871130895892
-0.06963858008384705 -0.18054643273353577 -0.05406072363257408 0.39999452388094336 -0.5305614380580294 -0.7473345578193568
-0.04222915321588516 0.001446806825697422 -0.05159827694296837 -0.5377825166135599 0.21313653193758458 -0.8156977280699054
0.02235220931470394 0.1808016151189804 -0.16133740544319153 -0.860781914565442 0.1223379957438972 -0.4940525380507811
-0.05677921697497368 -0.0025332546792924404 -0.042385879904031754 -0.5454478257769908 0.24099211710392374 -0.8027511873855574
0.04502873495221138 -0.3398945927619934 -0.00993944052606821 0.2665206618126583 -0.2265929401710405 0.9368150171146842
-0.03091571293771267 0.03412313014268875 -0.048905208706855774 -0.49206227783886763 0.27137864948419294 -0.8271809616596362
0.02704276517033577 0.14685888588428497 0.01667880080640316 0.8689938192135209 -0.02885977957837493 0.49398062238450824
-0.06177857890725136 -0.415066123008728 0.047704778611660004 -0.0022835404607767103 0.9425821194210698 0.333966665388401
-0.08102773129940033 0.18716877698898315 0.10512880980968475 0.24643032500698347 0.184476485608197 0.9514412862466087
0.003060021437704563 -0.005819049663841724 0.051730602979660034 0.5176428989147495 -0.08359156767912337 0.8515035402252188
-0.029952850192785263 -0.1887657642364502 -0.020691541954874992 0.3471722881365166 -0.7088764009895017 -0.613975284901784
0.14604847133159637 0.10405879467725754 -0.23315276205539703 -0.764381605597457 -0.6300587354371384 -0.13691877491274734
-0.0014322453644126654 0.19953535497188568 0.050993457436561584 0.7392096451004443 0.4637353854911488 0.48838365332374795
0.016950242221355438 0.06809286028146744 0.20129986107349396 -0.2719450962183933 -0.5918189453040066 0.7588123619327918
0.08675530552864075 -0.43114763498306274 0.0017668275395408273 0.23342044259602346 0.9654846905766413 0.11556041381201367
0.0974438264966011 -0.22771430015563965 -0.000741210242267698 0.9752956472926696 -0.20344187468503858 0.0860802183815165
0.048111531883478165 -0.41499730944633484 -0.03526457026600838 -0.18581087525396503 -0.14748215155407987 -0.9714542364982176
0.10079475492238998 -0.2163163274526596 0.008881807327270508 0.9585348169554033 -0.1457677499433033 0.24487296249430626
-0.03605043143033981 0.10805276036262512 -0.04322359338402748 -0.3209412755601272 -0.04811683109506193 -0.9458760321560156
-0.015723681077361107 -0.018028032034635544 0.060267601162195206 0.44471563062180447 -0.03068351902303576 0.8951460939651213
-0.033758632838726044 0.3265763223171234 -0.02655940130352974 -0.16663323699994106 -0.36922263185181853 -0.914280051436833
-0.029454918578267097 0.05443080887198448 -0.044297367334365845 -0.48851962919326763 0.10049009153106488 -0.8667469719571858
0.03438091278076172 -0.4096887707710266 -0.02837495505809784 -0.4777644463929978 -0.8662840958609418 -0.1459212082638537
-0.08306489139795303 0.1531771570444107 -0.006481687072664499 -0.8560798448089145 -0.19822783840256453 -0.4773185764185084
0.09252343326807022 -0.1667122095823288 -0.039484091103076935 0.2129869208126737 -0.16854793418938085 -0.9624074840956028
-0.07709161192178726 0.09774448722600937 -0.007668923120945692 -0.8524721240114124 -0.08816819249520659 -0.5152840455667139
0.025763528421521187 0.3716958463191986 0.03163200244307518 0.7488512762588866 0.17979096368092165 0.6378847665716139
0.07202927768230438 -0.10574378073215485 -0.04364956542849541 0.2746282536097318 -0.2757977240309382 -0.9211487055511849
-0.08000222593545914 0.13583265244960785 0.09779983013868332 0.9472325895670446 -0.23906210310661802 -0.21354093780901026
0.05156634747982025 -0.21927714347839355 -0.00031243846751749516 -0.9838137811594466 0.17672340354925023 -0.029652700361370965
-0.08145032823085785 -0.30281808972358704 -0.03023712709546089 0.6173984558321661 -0.16747750040271717 -0.7686159207269355
-0.03860502690076828 -0.15610116720199585 -0.04091586172580719 0.2922551847488809 -0.4702527362217407 -0.8327360152313358
-0.06460490077733994 0.08807478845119476 -0.023049945011734962 -0.7050274316637717 -0.13747518456776514 -0.6957276005949776
-0.012770586647093296 0.37054598331451416 -0.034299008548259735 0.2666031086461175 0.15466840026143341 -0.9513151257184949
-0.10150239616632462 -0.37309664487838745 -0.010429983958601952 -0.30408995989466847 0.055795804214326464 0.9510079518717683
-0.015311652794480324 0.09797465801239014 0.17079147696495056 -0.0040008556139051465 0.9173921903273023 0.39796427261857514
0.04806219041347504 -0.2501000165939331 -0.03587070479989052 -0.5273196690931428 0.3793314915182739 -0.7602904616855457
-0.04872678592801094 0.013205274939537048 -0.04400547966361046 -0.5475474754743537 0.2660385938974308 -0.7933569364786194
-0.11632797867059708 -0.355549156665802 -0.043448951095342636 -0.29760463087117206 0.2532857169009687 -0.9204769575051817
-0.08419137448072433 0.098643958568573 0.11556662619113922 0.31399142319187195 -0.44142547013155686 -0.8405670350906446
0.1390833556652069 0.1259084939956665 -0.21468496322631836 -0.8876126672514492 -0.20848321316167637 0.41070488524553894
0.05242282897233963 -0.2079128473997116 0.0034430124796926975 -0.9875443330740611 0.08056030684559795 -0.1351526069828146
-0.03562932834029198 0.075724758207798 0.0659259632229805 -0.07065582163686458 -0.007086184297097026 0.997475584092627
-0.020127488300204277 0.16126152873039246 -0.05481021851301193 0.028299617950991483 -0.2567671566583425 -0.9660588796162572
-0.10635519027709961 -0.10689413547515869 0.06159186363220215 -0.5044191130775674 0.34405751159254766 0.7919506216165147
0.01601249724626541 -0.372664213180542 -0.019066954031586647 -0.6149715562099973 0.10373057606805702 0.7816968419030763
-0.09322088211774826 -0.4143891930580139 0.040841758251190186 -0.2290216053828908 0.8938495467224031 0.3854634769884148
0.0253455713391304 0.15895353257656097 0.021605251356959343 0.8285026924700563 -0.09174988623399112 0.5524176381560577
0.00842623133212328 -0.1500242054462433 0.051554497331380844 -0.03398967981940473 -0.09940997027916747 0.9944658664201952
-0.03526928648352623 0.07434128224849701 0.16159193217754364 0.09857657910689338 -0.9486854025110201 0.3004640829019105
0.031610049307346344 0.36413270235061646 0.024512050673365593 0.8783664537252953 0.005339888124370508 0.4779580092067376
0.04410251975059509 -0.23490570485591888 -0.00950160063803196 -0.9082233453864467 0.4025553898078321 0.11436569866754492
-0.04457566514611244 -0.02173125371336937 0.06857763975858688 -0.001185869185467242 0.07458023699215945 0.9972143109504938
-0.009333633817732334 0.39159315824508667 0.03327169641852379 0.018794955122046333 0.7083831188586407 0.7055778529532125
-0.029061846435070038 0.29977723956108093 -0.020431475713849068 0.011453955306736192 -0.10056299669931593 -0.9948647599561886
-0.10211560875177383 0.2176867425441742 0.0585952065885067 -0.9998401196572673 -0.006430086522943709 -0.016684996585224376
-0.03150704503059387 0.09535320103168488 -0.04491741210222244 -0.23336048739905232 -0.06618130750877267 -0.9701355149963876
-0.09048310667276382 0.17154844105243683 0.11076322942972183 -0.12416213801251808 0.41905387796990345 0.8994318266786793
-0.06478526443243027 -0.16654619574546814 -0.052500367164611816 0.45252965943582163 -0.23175423592856198 -0.8611079383329757
0.022738389670848846 0.21125461161136627 -0.13603007793426514 -0.08057176328980653 0.8024436883766065 -0.5912633236933599
0.056606490164995193 -0.0019288555486127734 -0.022223634645342827 0.9474899391594067 0.3187302505818326 0.025958477531359825
0.024389931932091713 -0.05152381211519241 0.039949968457221985 0.42476909086473824 0.10624835378994715 0.899045330760841
-0.06089205667376518 -0.09350892901420593 -0.05049965903162956 -0.31047983952963254 0.18555075630497167 -0.9322945811707299
-0.1398550271987915 -0.19001376628875732 0.04363903030753136 -0.6201781581038736 -0.7750831423133633 -0.12093458856972862
-0.07460387796163559 -0.412906676530838 0.004695480223745108 0.9097919477615747 0.09155751236279776 -0.4048405040483678
0.0897313728928566 -0.1906665563583374 -0.01316317729651928 0.27565787128918795 -0.13919442175096033 -0.951124414022545
-0.1124572828412056 -0.3128284811973572 0.007494193501770496 -0.52838264094968 -0.2860067430075384 0.7993822162753319
-0.08785218000411987 0.17166796326637268 0.05345172807574272 -0.7822129601163513 -0.2877088792032121 0.5525997519485932
0.049446817487478256 0.08260820060968399 0.1774461269378662 0.5866854823086972 0.4007837249806615 -0.7036849796882386
-0.08558350056409836 0.1256643682718277 0.14128391444683075 -0.22729933627744972 0.6535437512723627 0.7219526140271804
-0.05185915529727936 0.07345473021268845 0.06299983710050583 -0.2681659162573847 0.039548907309699156 0.9625606086311896
-0.011991278268396854 0.23154610395431519 0.03467082232236862 0.7140792632763114 0.47775435863347426 0.5117045813411076
-0.05881502851843834 -0.07329981029033661 -0.049376752227544785 -0.5315240268841831 0.11983486043791597 -0.8385235924341352
-0.05779242888092995 0.32106971740722656 -0.001627198071219027 -0.9454172349998415 -0.3114664972470578 -0.09578555662469772
-0.0878889411687851 -0.0029454545583575964 0.042338017374277115 -0.8338559940550279 0.050362471559272835 0.5496797273294178
-0.04808329790830612 0.19196410477161407 0.07705377042293549 0.13348530756537635 -0.10952540063027558 0.9849801314143116
-0.02980729378759861 0.07624403387308121 -0.04294592887163162 -0.3328429124002857 -0.06588178272562412 -0.9406780460762276
0.10094329714775085 -0.14004892110824585 -0.0289161317050457 0.7850452283043472 0.32272602890410906 -0.5287266777687312
0.01714782789349556 0.09186673164367676 -0.03528721630573273 0.4960901129146878 0.25695442312797684 -0.8293786977631272
0.05366356298327446 -0.20354841649532318 -0.003618955612182617 -0.9782773015879346 -0.08671557843284974 -0.1882921391213284
-0.05191441625356674 -0.20627157390117645 0.03556298837065697 0.3680233923107381 -0.3943652917378159 0.842042041340362
-0.12553153932094574 -0.3326721489429474 -0.023051997646689415 -0.9960996135023795 0.08804346426123244 -0.005823090355740086
0.03108859620988369 -0.10137840360403061 0.05135369673371315 0.25067273342664764 0.15231150796775908 0.9560148457304417
-0.058158159255981445 -0.2392224669456482 -3.96992290916387e-05 0.8930939235477188 -0.30890100970158585 -0.32705261033583305
-0.09414319694042206 0.2509100139141083 0.05143309384584427 -0.746464750427829 0.6491622350169366 0.14621480430016204
0.09042328596115112 -0.25975504517555237 -0.021629324182868004 0.9047376320249908 -0.19470577267880462 -0.3788660439830439
0.03699251636862755 0.323674738407135 0.006624938920140266 0.9687367140728856 -0.0651036820595646 -0.2393965108132434
0.02763860486447811 0.3266628384590149 -0.012153048068284988 0.7147996993288314 -0.11331372585519636 -0.6900879577070054
0.11080377548933029 -0.17283882200717926 0.04903402552008629 0.6227638468824112 -0.6204724554065367 0.4766331116257075
-0.0489063486456871 0.2346300184726715 -0.04978688433766365 -0.7421023780458065 0.170900378081486 -0.648133567461495
-0.1095244362950325 -0.42129456996917725 -0.005895827431231737 -0.5549947966050086 -0.7865284210331345 0.27083910103323217
0.041191600263118744 0.18461228907108307 -0.11407936364412308 0.6770383479559904 -0.601996193254978 0.4233434287945645
-0.14758670330047607 -0.17831115424633026 0.04389223828911781 -0.9463438584418731 -0.3214106944075902 0.033592664523357865
-0.02091139182448387 -0.1133008673787117 -0.06171446666121483 -0.014979361052591067 -0.25103019179251845 -0.9678633485937297
-0.01968645304441452 0.40342244505882263 -0.005923029500991106 -0.013571118422226818 0.9799826668051467 -0.198619730908696
0.10724779963493347 -0.1395055204629898 0.04090312123298645 0.5489373960700464 0.4579143166199715 0.6992726319757564
-0.12118591368198395 -0.09891410917043686 0.033452458679676056 -0.8732570726167214 0.48725822235515387 0.0012287685581959357
0.01727128215134144 0.3382086157798767 0.03584251180291176 0.6192216999795631 -0.0006365653584818765 0.785215945494591
-0.07912231236696243 -0.41198277473449707 -0.0046403007581830025 0.9776204542453775 0.11331021582336631 -0.177254174650766
0.14816884696483612 0.1502985954284668 -0.22456003725528717 0.6028308937256205 0.7976950353943353 0.016659654174084246
-0.06335394084453583 0.2720440626144409 0.03856056183576584 -0.19590338127594592 0.7146048111052338 0.6715369157015156
-0.1401134580373764 -0.1487056314945221 0.05980745702981949 -0.7057869483675884 0.2858020450477736 0.648214451058041
0.03929451107978821 0.31944358348846436 0.01623300462961197 0.9267203712075129 -0.24992561341526304 0.2805825036384381
-0.08347315341234207 0.05276167765259743 0.012827507220208645 -0.9830391752481975 0.049652394449591145 -0.17654636686368216
0.004824680741876364 -0.028513625264167786 -0.06983256340026855 0.0033968421723005876 -0.0021446203124776625 -0.9999919310009316
-0.008327145129442215 0.2622426450252533 0.005104273557662964 0.9101900093567982 0.03155553914690739 0.4129871605948783
0.029074296355247498 0.18817193806171417 -0.16742953658103943 -0.5851121996837471 0.6023437278157527 -0.5429785882907993
-0.027247413992881775 0.087423175573349 0.06593921780586243 0.12746028389169067 0.029354114509066616 0.9914092051174622
-0.08698274195194244 -0.264404296875 -0.02808636799454689 0.29399330319681294 0.3104531496408481 -0.9039838381041467
-0.07935182005167007 -0.11039137095212936 -0.05266889929771423 -0.33504780466708606 0.3086657697809575 -0.8902069484975363
0.04624999687075615 0.17117109894752502 -0.18885669112205505 -0.6899010126839569 -0.02104573523248214 -0.7235977264517731
0.06042947992682457 0.19224148988723755 -0.16602259874343872 0.5804146338810732 0.8129964603967776 0.04642852742668627
0.0882502868771553 -0.06365051120519638 -0.014106868766248226 0.8684196733440477 0.49558960374169947 -0.01543423506892619
0.06964729726314545 -0.27719399333000183 -0.038558535277843475 0.5027968900335968 -0.13888730614909162 -0.8531738413495762
-0.08487452566623688 -0.4224017858505249 0.006757258903235197 0.3504159599218061 -0.9115274365784758 -0.21523565549590548
0.024788416922092438 -0.02961687557399273 -0.06892251968383789 0.21773244608441172 0.03477761337097823 -0.9753886915124235
-0.021817559376358986 -0.04776182770729065 -0.06729287654161453 -0.22616288500782186 -0.02887099144597712 -0.9736615506929834
-0.08184945583343506 -0.04352793097496033 -0.029934978112578392 -0.6527263834695978 0.03352884692143421 -0.7568514284500087
0.023555593565106392 -0.3490787446498871 -0.0424516461789608 -0.21922800179025972 0.28611169507407913 -0.9327803499071403
-0.0020629526115953922 0.20543734729290009 -0.09695018082857132 -0.9374143809099404 -0.0910616961855764 -0.33609826829521
0.038189999759197235 0.02746279165148735 -0.04911564290523529 0.6230612850455268 0.33512898076515213 -0.706741254865405
0.05718209967017174 -0.048712655901908875 -0.051350563764572144 0.5627992998209913 0.07090028066491298 -0.8235472653847128
0.05543781816959381 -0.2099970132112503 0.015320994891226292 -0.8403456106953411 -0.3646484663367951 0.4010620283488548
-0.04026413708925247 0.3117385804653168 0.030521146953105927 -0.5218918767171418 -0.21427794815096526 0.8256596332344655
0.17149317264556885 0.12162439525127411 -0.23876416683197021 0.9744841286225462 0.1959538818118819 -0.10946579038956344
-0.026818901300430298 0.23350542783737183 0.05254977568984032 0.6633145954743079 0.5150686036860118 0.5428794349832176
-0.030738793313503265 0.35291600227355957 -0.03672310709953308 0.03299595048389528 -0.1652796690420073 -0.9856946272822171
0.0026646233163774014 0.20625364780426025 -0.10948732495307922 -0.9198735279049468 0.10118683958938805 -0.37893787901662557
-0.08738069981336594 -0.0336051806807518 0.05042431503534317 -0.7180613940418774 0.1787750825627064 0.6726271658514344
0.04622898995876312 0.1990540474653244 -0.1576804518699646 0.2603116625132726 0.896617234663559 -0.35821135222637546
-0.06918961554765701 -0.2379605770111084 -0.012837165035307407 0.4028815774909173 0.08792359630460314 -0.9110191412540656
-0.0609111562371254 0.16332867741584778 0.07162760198116302 0.6655698254155036 -0.6627593246618233 0.3431718010999448
0.10857225954532623 -0.16471154987812042 -0.011827943846583366 0.7552095095779452 -0.009996650555429502 -0.6554072502045672
0.10550791770219803 0.14286768436431885 -0.2038058042526245 0.0757615574570174 -0.9630370492101132 0.2584953157416303
-0.08373347669839859 0.1103280708193779 0.00166517763864249 -0.9533549888235504 -0.06058346198316709 -0.29570916357019156
