ply
format ascii 1.0
comment VCGLIB generated
element vertex 393
property float x
property float y
property float z
property float nx
property float ny
property float nz
element face 0
property list uchar int vertex_indices
end_header
0.009114724583923817 -0.12758900225162506 -0.05582982674241066 0.5237449812360506 -0.35893251118142083 -0.7725662735630181
-0.016079962253570557 0.21574820578098297 -0.08887404948472977 -0.7849171354878078 -0.10038406448164335 -0.6114148591715445
-0.0603727288544178 -0.2609439194202423 0.003932977560907602 0.9301578784167236 -0.29468121433666794 -0.2190189561119459
-0.06453146040439606 0.16396823525428772 -0.031655844300985336 -0.6680387337535935 -0.14030789278507566 -0.7307789990326126
-0.08956482261419296 0.17977020144462585 0.06840374320745468 -0.7712720946055363 0.1760199809926167 0.6116831879119679
-0.12957900762557983 -0.14726698398590088 -0.031720079481601715 -0.9253095218565032 0.358422199402278 -0.12383786067807878
-0.051714058965444565 -0.2372944951057434 0.02597978711128235 0.8798483322378416 -0.4628465094850178 0.10788892860634085
0.016048800200223923 -0.3879680633544922 -0.019420906901359558 -0.5822616875169883 -0.04416044287489556 0.8118011964360254
0.05125086382031441 -0.35148510336875916 -0.02014063484966755 0.8756785528723892 -0.30445040126483536 0.3748293281068052
-0.045062653720378876 0.08927784115076065 0.06586442142724991 -0.17784318052871018 -0.0429008826010009 0.9831232462979846
-0.08370222896337509 -0.23928572237491608 0.04155236855149269 -0.13118972714682084 -0.0039615971754307765 0.991349363866726
0.025543212890625 0.0499996617436409 0.04074013978242874 0.7120787370320123 0.1065169628914017 0.6939726283386732
-0.10431329160928726 0.11438941210508347 0.14283166825771332 -0.4790179815661619 0.3093193067748002 0.8215006632940944
-0.05860677734017372 0.29832375049591064 0.01908871904015541 -0.8294874662675354 0.38148508244608176 0.4079456767465132
-0.011699734255671501 -0.09711234271526337 -0.07417310774326324 0.037108947171153914 -0.1622295767582558 -0.9860550139138716
-0.07140956073999405 0.19944803416728973 -0.031710896641016006 -0.792769187428879 -0.018271314797938067 -0.609248040225744
-0.03686909005045891 0.07354152947664261 0.14526543021202087 0.09271397078840049 -0.6582135428283141 -0.7471004294323801
0.02377435937523842 -0.406278520822525 -0.02974713034927845 -0.5032193933359821 -0.8576540250116105 0.1058291810038716
-0.08959431946277618 -0.1318640261888504 0.07314959168434143 -0.4567228895788531 0.18271827438091778 0.8706424262244531
0.10249164700508118 0.15692493319511414 -0.18552115559577942 0.6223192542734874 -0.03514114461439355 0.7819743254836956
-0.034575220197439194 0.07298750430345535 0.06674430519342422 -0.007717095571691602 -0.02457243437736654 0.9996682659286067
0.013183102011680603 0.08171992748975754 0.04765976220369339 0.7504446631091631 0.136943800705897 0.6465904446086397
-0.04744227975606918 0.37141868472099304 -0.03438720852136612 -0.24942233656896282 0.29829399043908583 -0.92130841377272
-0.08270861208438873 -0.18386641144752502 -0.047140851616859436 0.25030554625549456 -0.8150693030510124 -0.5225027892152113
-0.09797258675098419 0.09236624091863632 0.11740359663963318 -0.07485239607353673 -0.805957199569922 -0.5872223695189579
0.08818317949771881 -0.16936832666397095 0.051956985145807266 0.07637345620366995 -0.2431832895509887 0.9669689668601915
0.054713521152734756 -0.18554875254631042 -0.01830388605594635 -0.4384996950583937 0.13259111564512874 -0.8888968519944684
0.019576681777834892 0.3066311776638031 0.02363884449005127 0.7416314113501157 -0.37725550048594164 0.5546720986780724
-0.011764729395508766 -0.030170438811182976 0.06079523637890816 0.5121821374668926 0.0548827532383935 0.8571215441562643
-0.061118144541978836 0.11104539781808853 0.1475444883108139 0.56949342127988 0.6499208515936692 0.5032694405412443
-0.006940307095646858 0.08886880427598953 -0.044580742716789246 0.05165163510363908 0.12542074725212832 -0.9907581666329268
-0.08337829262018204 0.2582705020904541 0.07144567370414734 -0.14496190612541857 0.9017544743939957 0.4072160528305508
-0.053305935114622116 0.0016555777983739972 -0.04266514629125595 -0.5926144078032047 0.2573564724187172 -0.7632665391383608
-0.026363477110862732 -0.19744037091732025 0.028588486835360527 0.42834283931602013 -0.8512870919965716 -0.3030391047483981
-0.0495343841612339 -0.04815860465168953 -0.054410453885793686 -0.6370557357421825 0.03471539326940161 -0.7700356037405915
-0.016050981357693672 -0.19656120240688324 0.03885048255324364 0.21953657745173233 -0.9636506877066593 -0.15225322079766385
-0.1067950502038002 0.2188054621219635 0.050090402364730835 -0.999806503769518 -0.004839365971725703 -0.01906660843372033
0.06525324285030365 -0.4223869740962982 0.0018058374989777803 -0.06711696400227808 0.2803039872406525 0.9575620021074924
0.08483629673719406 -0.10359682142734528 0.025349508970975876 0.41429985982392026 0.3836147597392204 0.8253455895926871
-0.06119325011968613 -0.10570777207612991 -0.05392623692750931 -0.42972781627158557 0.1529244343698567 -0.8899146707944048
-0.09207581728696823 -0.2913200557231903 -0.028703806921839714 0.13585783206350438 0.16632157163503974 -0.9766676938835721
0.005380024667829275 0.3220688998699188 0.04073719307780266 0.36823263567866493 -0.141721804889363 0.9188686826963063
-0.002192138461396098 0.05210437253117561 -0.05379887670278549 -0.18569798891401884 0.28803607831428907 -0.9394421081166278
-0.1008719727396965 0.24809980392456055 0.05236877501010895 -0.8568084810754593 0.5092952686735023 0.08060741941006232
0.1366441696882248 0.14289255440235138 -0.23346573114395142 -0.5053482546139332 0.35230014528150916 -0.787723142476644
-0.04736301302909851 0.12475845962762833 -0.0410790741443634 -0.5009787041975886 -0.11935709030957728 -0.8571897240012485
-0.05617068335413933 0.016213340684771538 0.0632692500948906 -0.4058572681426791 0.07891683907916519 0.910522932388589
0.014498282223939896 0.09466447681188583 0.04352330043911934 0.7799751870900767 0.1124587187521456 0.6156230535810251
-0.050592485815286636 0.380851686000824 0.030845332890748978 -0.5846869546400105 0.3436906124158789 0.7348591212001038
0.06803247332572937 -0.40790048241615295 -0.027377210557460785 0.7639284996735841 0.4558497858471769 -0.4567430570129662
0.0999336838722229 -0.15725357830524445 -0.020980630069971085 0.9198467609335703 0.043379166133911934 -0.38987201021046086
-0.003068838734179735 -0.05121351405978203 0.056542158126831055 0.5556997466446995 0.0780006777473704 0.8277159451466233
-0.04425203800201416 0.1402958631515503 0.07471035420894623 0.021713043940737642 -0.227824519894103 0.9734600823135221
-0.08982348442077637 -0.21205633878707886 0.042983803898096085 -0.5890217249589291 -0.33513677491238525 0.7353480465927227
0.07283595949411392 0.18277548253536224 -0.17740608751773834 0.6547457284919744 0.6528782484405928 0.38086483656890324
0.023934463039040565 0.18655605614185333 0.02027944102883339 0.7927299822724903 0.1577793357602761 0.5887995044268491
0.0886446088552475 -0.20360970497131348 0.00772104412317276 0.77564927984343 -0.10161980577155953 0.6229298594170285
-0.0025760484859347343 -0.16281621158123016 0.06106673553586006 0.46784500212544855 -0.14230783873957173 0.8722783575324513
0.16328221559524536 0.10730016231536865 -0.24497628211975098 0.71010071255349 -0.17856214570145965 -0.681081887994033
-0.00012714667536783963 0.08216188102960587 0.16357897222042084 0.058849702944663226 0.8438281843551155 -0.533376703420082
-0.0716107189655304 0.341535747051239 -0.013413614593446255 -0.8639683517961144 -0.38551170342399493 -0.32394353461341907
-0.014101648703217506 0.2198433130979538 0.042458485811948776 0.7317916804950847 0.4874885956596223 0.4762728267075389
-0.12994614243507385 -0.17312012612819672 0.03220878541469574 -0.9860313060116553 -0.0971470657453651 -0.1352949044939062
-0.0689469575881958 -0.27950987219810486 0.01745574176311493 0.8639992270367682 -0.38286436309723715 0.32698656723176533
-0.07366953790187836 0.18966765701770782 0.0813102051615715 0.6662850928934306 -0.5887569302967206 0.45763462720337844
0.03058909997344017 0.0680006667971611 0.1635834276676178 0.12169829207222856 -0.1699846782021681 -0.9779032339056907
-0.0653756782412529 -0.27732163667678833 0.007771898061037064 0.9264972089669592 -0.36246250079380676 0.10111309160902149
0.014249172993004322 0.3437332808971405 0.03559485077857971 0.6139372407310874 0.00530992809426398 0.7893369807041429
-0.018909355625510216 0.3951030671596527 0.03032529354095459 -0.04105316893225936 0.788341686810741 0.6138664530311254
0.05373229458928108 0.007947714999318123 0.0006931568495929241 0.9243082120547614 0.19475853463650922 0.3282124956706705
-0.11231296509504318 -0.1171550452709198 0.048086509108543396 -0.8480086073717531 0.47749252838597894 0.2299614906000244
-0.0984087660908699 -0.2503388524055481 -0.008785208687186241 -0.47565036376040787 0.46104166989118167 -0.749131036654164
-0.021494422107934952 0.061247847974300385 0.06518092751502991 0.19386494825152498 -0.03101009958058983 0.9805379929219651
0.05021870136260986 -0.23146311938762665 -0.03795350342988968 -0.3665726403192437 0.3380888188189039 -0.8667874306651064
0.033928487449884415 -0.07198379933834076 0.04062795639038086 0.3974022227302624 0.2970835563338447 0.8682239537844381
0.027250731363892555 -0.25930264592170715 -0.021517369896173477 -0.9616679861142503 0.2702581897621203 -0.04642408156834302
0.0793747678399086 0.15037982165813446 -0.2069612443447113 -0.3688343286940335 -0.5310631991531594 -0.7628454079838415
0.02729974314570427 0.11428665369749069 0.010958538390696049 0.9738630610261586 0.1336001599022029 0.1836892366004777
0.07540662586688995 -0.184413880109787 0.020607655867934227 0.3158810168177684 -0.8329239061720652 0.4543753401552965
0.048338741064071655 0.04738883301615715 -0.01644136570394039 0.9613439973812563 0.2753419746278867 0.002125019304251588
0.025435682386159897 0.07238683849573135 0.16424693167209625 0.16496804691518058 -0.21546382629152047 -0.9624764324682492
-0.06735970824956894 0.22460246086120605 -0.03300752863287926 -0.8003846208235241 0.10234024118250509 -0.5906868322418322
0.10328603535890579 -0.08898589760065079 -0.006187282036989927 0.9021637572215931 0.4092040719255113 0.13657445835660256
0.10900558531284332 -0.10383494943380356 -0.0054712058044970036 0.9208709996814134 0.387137541370989 0.04605568376411532
-0.10935765504837036 -0.31759825348854065 -0.030582472681999207 -0.3546578669213034 0.17630284174489128 -0.9182238863281149
0.08867006003856659 0.1548062562942505 -0.17950297892093658 0.306538657271039 -0.3727325291091822 0.8758450281541484
0.04347146674990654 -0.3806532919406891 -0.036153096705675125 0.7904923245509907 0.29039345047519216 -0.5392527503379869
-0.03014484792947769 0.25018802285194397 -0.06774590909481049 -0.5793593104029293 0.5262126625067836 -0.6224492134037638
-0.002271895995363593 0.35696274042129517 -0.028186310082674026 0.3893854864897577 -0.027749632988455827 -0.9206567768610302
-0.10217767208814621 -0.14417682588100433 0.06764461100101471 -0.48172649230756487 0.19975311506990967 0.8532515922217299
-0.12414047122001648 -0.34848031401634216 -0.029191024601459503 -0.8600429712569039 0.26992842860966126 -0.43297197486663674
0.06480370461940765 0.1665157526731491 -0.16503296792507172 0.33585140690605936 0.16654381049747374 0.9270744261731105
0.06521541625261307 -0.3009728491306305 -0.010473646223545074 0.6777738060475493 -0.368789409513968 0.6360951495383045
-0.0005608584033325315 0.03664699196815491 0.058710385113954544 0.36992679629749736 -0.0113849465429554 0.9289911454762548
-0.09968586266040802 -0.3667392134666443 -0.033316873013973236 0.8303948269087654 0.03202035381280561 -0.5562545535857341
-0.0814601480960846 0.012823978438973427 0.0451928973197937 -0.7879365441177847 0.07418291630665191 0.6112715414379788
-0.04116473346948624 -0.10853836685419083 0.08132754266262054 -0.024366386622588714 0.04490709543216646 0.9986939631252433
0.09940332174301147 -0.12425559014081955 -0.028146782889962196 0.6055868922926269 -0.04098329920803857 -0.7947231499518451
-0.09924290329217911 0.24424870312213898 0.0207523126155138 -0.8322834480230525 0.3857578303692597 -0.39811450420156813
-0.04909027740359306 -0.05706605315208435 -0.055428747087717056 -0.6493059205345119 0.0924268258707457 -0.7548901267193056
-0.10410038381814957 -0.3937797248363495 -0.04528168588876724 0.6062976752629321 0.0701429181098464 -0.7921383086366923
-0.07361283898353577 0.15123437345027924 -0.025114592164754868 -0.692914564196181 -0.08912315727953292 -0.7154903699990267
-0.1168408989906311 -0.16282428801059723 -0.05283345654606819 -0.6091629687481505 -0.0603821767544923 -0.7907429862074841
-0.030609147623181343 -0.19722971320152283 0.05583833158016205 0.2073686082223004 -0.9183548670967188 0.33707951347377096
-0.1034490242600441 -0.34589001536369324 -0.03691691532731056 0.29319416104629886 0.08985242628757582 -0.9518212675805227
-0.024009639397263527 0.0010040192864835262 0.066036656498909 0.2566948014527845 0.003222984920075769 0.9664871397361274
0.03649342060089111 -0.011343855410814285 -0.07412046194076538 0.375708370726463 0.21679295416102776 -0.9010238815881637
0.008779783733189106 -0.05072764679789543 -0.07878948748111725 0.018929353905743556 -0.0366502964690431 -0.9991488554411911
-0.013967580161988735 0.2853052020072937 -0.012750065885484219 0.6575085489418755 -0.09391998238334473 -0.7475704281052465
-0.06342996656894684 0.22771842777729034 -0.03818904235959053 -0.7999187636779466 0.10264543887923637 -0.5912646491996917
-0.055508241057395935 -0.246731698513031 0.00819642934948206 0.9575575577022273 -0.24195263438182485 -0.1566602898090023
0.09208603948354721 -0.16133752465248108 0.04972193017601967 0.31280908592753065 0.15896977959783729 0.9364182211681904
-0.08760127425193787 -0.3277537226676941 -0.02306067943572998 0.8742259205290528 -0.13687353677278338 -0.465826872138609
-0.10431282967329025 -0.11021514236927032 -0.02646241895854473 -0.6663406376817843 0.5207411026681816 -0.5336842311383759
0.017362557351589203 0.30298134684562683 -0.007859082892537117 0.512232262107107 -0.4581597578007273 -0.7264349564748485
-0.09503399580717087 -0.3443763256072998 -0.0018087454373016953 0.6404581824076588 -0.30911025865628555 0.7030392340264675
0.10751254856586456 -0.17553651332855225 0.013258363120257854 0.43878138442985665 -0.8334315758227353 0.33595045036351817
-0.05976232513785362 -0.20745030045509338 0.04874269664287567 0.2516530119136692 -0.5373079888645969 0.8049663885511377
0.042027346789836884 -0.41166895627975464 -0.006266691256314516 -0.40811059609784983 -0.2737744726506815 0.8709151964901629
-0.007344522513449192 -0.14826700091362 -0.04616652801632881 0.011326984988825868 -0.6742154434455668 -0.738447855458028
-0.08614708483219147 -0.0020954643841832876 -0.008695678785443306 -0.8411140470469292 0.18988614366863057 -0.5064290792430788
-0.08482053130865097 0.018145957961678505 0.03764520213007927 -0.8679207569204093 0.11531414151656576 0.48313166784325073
-0.10420030355453491 -0.26293376088142395 0.03264573961496353 -0.5942145080181134 -0.04357092227203952 0.8031255774741303
0.024938827380537987 0.08549360185861588 0.18221333622932434 0.42740839127370533 0.9035269381497697 -0.031002243572451803
-0.10797940939664841 -0.11391569674015045 0.05265209078788757 -0.8528450432107891 0.4509435407157364 0.2632589131587806
-0.126788929104805 -0.3948385417461395 -0.05110633373260498 -0.4740216750843614 -0.18385405719847167 -0.8611046029385032
-0.07453764975070953 0.1955084204673767 0.09819218516349792 0.6383115943470158 -0.1201594424151423 0.760342039427423
-0.005812587682157755 0.06207213178277016 0.06073285639286041 0.3443771066910408 -0.01609428512450258 0.9386934443008744
-0.05810769647359848 -0.17733299732208252 -0.035307493060827255 0.38007691621667533 -0.7330849650787205 -0.5640283430243145
0.04551582410931587 0.06935077160596848 0.18550275266170502 0.9121513101656232 -0.3123744011734526 0.2653341682759009
0.045969512313604355 0.02615823782980442 0.013999995775520802 0.8905326629155271 0.08901571446576233 0.4461252950222954
0.020306963473558426 0.14526022970676422 0.021164577454328537 0.8721800825306814 0.019265155145084648 0.48880543924347836
-0.06210053712129593 0.1883702278137207 -0.043017659336328506 -0.7252715756364304 -0.1478400140365949 -0.6724020165224888
-0.09575365483760834 -0.2483360320329666 0.03780899941921234 -0.37491615259745903 -0.10465220355051218 0.9211328866203514
0.06887080520391464 -0.12428674846887589 0.039647094905376434 0.2368354967280562 0.33420025954302146 0.9122604529469378
-0.12043286114931107 -0.41582465171813965 -0.029189877212047577 -0.37649422987273734 -0.926406866297221 -0.004734231711405256
-0.06301093101501465 0.17026835680007935 -0.03492989391088486 -0.7372664575890758 -0.17245696773439725 -0.6532203034152512
0.041296347975730896 -0.16058458387851715 -0.01963714510202408 0.6454288871089565 -0.2170808072573575 -0.7323233403393531
0.029415728524327278 0.05952247977256775 0.03393763676285744 0.817953813536297 0.16897996596430118 0.5499066557372554
-0.02010319009423256 0.21531152725219727 -0.08254041522741318 -0.7617205441383569 -0.10882397647978906 -0.6387011466880985
0.003775684628635645 0.38598233461380005 0.03670180216431618 0.3526825198454539 0.5593204130190342 0.7501837879984332
-0.119941845536232 -0.1847267746925354 0.06646274030208588 -0.4935489130722252 -0.33757430535034005 0.8015316954259891
-0.09322898089885712 -0.3862150013446808 -0.015340197831392288 0.9384274365857164 0.28653116860630207 0.19301252726252882
-0.02516932599246502 -0.1893460899591446 0.0164654441177845 0.2317118441771001 -0.8813595439724983 -0.41172196385016585
0.02962678298354149 0.08627520501613617 0.022868318483233452 0.9241848107732559 0.17883595602965632 0.33749094264433255
0.0030776560306549072 -0.14628030359745026 -0.049144335091114044 0.20394298876008254 -0.5143094458895022 -0.8330024316917917
0.01917904242873192 0.19871048629283905 -0.1655043512582779 -0.5825259272117906 0.6653431709311134 -0.4668854345783074
0.027196865528821945 0.16529914736747742 0.012424983084201813 0.8779867841227855 -0.10166415527067765 0.4677644775299093
0.009784779511392117 0.39817023277282715 0.004275382496416569 0.4116546186969691 0.9008931722593899 -0.13759348488161172
0.07062697410583496 -0.14592285454273224 -0.038933224976062775 -0.5994190897835386 -0.4198275131390279 -0.6814995333927775
-0.08126157522201538 -0.1567041575908661 0.07853322476148605 -0.3311911581267555 0.006626144910538118 0.943540413009577
-0.08745890110731125 0.009975485503673553 0.03316350653767586 -0.943725883261437 0.05320747827209357 0.32642062054708704
-0.061278894543647766 0.2622448205947876 -0.018084093928337097 -0.7667013242603452 0.449915551856749 -0.457979339681246
0.04652367904782295 -0.14798583090305328 -0.018550382927060127 -0.03464983925776733 -0.24283404108149387 -0.9694488213059224
0.0775354877114296 -0.16205450892448425 0.05046664550900459 -0.033114044516065984 0.08054472124173649 0.9962007869580705
0.014818776398897171 0.09881111979484558 0.04214730113744736 0.8096344989554686 0.14782664588160876 0.5680134337042752
0.02476027049124241 0.13842211663722992 -0.010803730227053165 0.9789903949560956 0.014887486285599466 -0.20336216298958937
-0.08600709587335587 0.16319558024406433 0.10991155356168747 0.7796827078405265 0.14831617172548767 0.6083561360742241
-0.12673214077949524 -0.15386614203453064 -0.04279126599431038 -0.8055099228765691 0.13796482962021775 -0.5762980738604355
0.08815138787031174 -0.06867203861474991 -0.03662886098027229 0.8375767957946145 0.2880790977875342 -0.46419343442615263
-0.03989502042531967 0.10144032537937164 -0.04122817888855934 -0.3344234029409536 -0.09540326901017457 -0.9375815718259212
-0.09428734332323074 0.21670643985271454 -0.0005008787848055363 -0.780908549194523 0.19381767359105734 -0.5938152466876003
-0.05086832121014595 0.3888614773750305 -0.022615522146224976 -0.38082754443415306 0.6985266043809589 -0.6058308050704094
0.0002599513391032815 0.3923720717430115 0.03118889033794403 0.2706281359416834 0.8057811374206685 0.5267610185024928
0.009128137491643429 0.3629232347011566 -0.02220427617430687 0.5524522081081246 0.07431515061294922 -0.8302251599089444
-0.0702127069234848 0.1863672435283661 -0.030292049050331116 -0.7876105807492759 -0.13462892883670027 -0.6012858094218347
-0.12759296596050262 -0.14728030562400818 0.0495537631213665 -0.9197055549081226 0.3666212904721946 0.14046537524829816
-0.12745369970798492 -0.1516752392053604 0.007009969092905521 -0.9476150851451298 0.3191208764032153 -0.013693671860838176
-0.08215949684381485 0.16463540494441986 0.08527161180973053 0.838063160391204 -0.45675485155712914 -0.29837081756454054
-0.05395401641726494 -0.20048324763774872 0.07390043884515762 0.10011147157777361 -0.847949620270267 0.5205373519182296
-0.05966071039438248 0.16990940272808075 -0.03846752643585205 -0.6399108155006015 -0.22009202777365014 -0.7362565093198417
-0.10081648081541061 -0.21455535292625427 0.03157491609454155 -0.8884757041964225 -0.06052190190773203 0.4549154014123307
-0.017892727628350258 0.2606242895126343 -0.066917784512043 -0.48201674380108156 0.7324174051238576 -0.4808581946551788
-0.0062894378788769245 -0.031458791345357895 -0.07533649355173111 -0.24018377865433596 0.08318979862026328 -0.9671562489468002
0.06787851452827454 -0.21229474246501923 0.013057894073426723 0.11429336245794733 -0.12758944751256712 0.985219752228656
0.05425180867314339 0.022458605468273163 -0.030613979324698448 0.9507351960072913 0.2861412583496494 -0.11927182124482139
-0.09545567631721497 -0.13376611471176147 -0.053637903183698654 -0.49513450551238397 0.4295721016202979 -0.7551884738001021
0.12458429485559464 0.1349332332611084 -0.2006092518568039 -0.014782224319362864 -0.3760702934892715 0.9264732161261141
-0.019503530114889145 0.3416503369808197 -0.033159948885440826 0.20035218986848347 -0.24832225460553603 -0.9477315325990407
0.005285677034407854 -0.37131476402282715 -0.0335671603679657 -0.8640701889065453 0.3595685851077716 0.3522685640908118
-0.0762932300567627 0.35506540536880493 -0.009116400964558125 -0.9773430179405166 -0.1201415327571739 -0.1742602576311647
-0.037569157779216766 0.2760099768638611 -0.026263751089572906 0.177302179640325 0.7465504586755408 -0.6412693269961768
-0.04170660674571991 0.40026429295539856 0.0009754421771503985 -0.35418893102630206 0.9243642068558443 -0.14177804562841045
-0.09532450884580612 0.1804886758327484 0.10906726866960526 -0.05127378469038158 0.3246260327440788 0.9444516598896764
-0.05451137199997902 0.3927646279335022 0.008028686046600342 -0.4777028106684882 0.8248724343251654 0.30230033372443066
-0.04583774134516716 0.39642801880836487 0.013920263387262821 -0.4579002062344745 0.8433791308522246 0.28113883184891403
-0.08237231522798538 -0.40459752082824707 -0.001728786970488727 0.9278344148578559 0.18511749667743851 -0.3238129259761857
0.02899884805083275 0.05280739814043045 0.19638557732105255 -0.3212326239270455 -0.7839603301696371 0.5312398724166503
0.08728945255279541 -0.1734420508146286 -0.026258064433932304 0.4245242579389788 -0.8574525311227215 -0.29078224033217326
0.03262318670749664 -0.3058706521987915 -0.006977231241762638 -0.54217275511774 -0.06489268905507845 0.837757508181956
-0.09606682509183884 -0.37891992926597595 -0.012618668377399445 0.8161902155377753 0.08024604396384673 0.5721836282947569
0.04082613065838814 -0.28213512897491455 -0.04544762521982193 -0.4429921516597447 0.03822261389690663 -0.8957103244658721
0.05438392236828804 -0.28500065207481384 -0.04567449912428856 0.24293305549026406 0.006456543177015687 -0.9700215686263721
-0.0809333547949791 0.18289639055728912 0.07381784915924072 -0.07531392934149288 -0.7117243301931662 0.698409829439874
-0.08607447892427444 -0.32796740531921387 -0.01167240645736456 0.9351475340363841 -0.35419022392245497 -0.006955204053886308
0.1211039200425148 -0.15653860569000244 0.010100401937961578 0.9704449232995881 0.005956522518053593 0.24124918793966665
-0.008873384445905685 0.15751145780086517 -0.04937691614031792 0.3821394692346354 -0.18166419770095912 -0.9060725938503703
-0.041560765355825424 0.13548611104488373 -0.044893451035022736 -0.3108506203134783 -0.10424135792613395 -0.944725161699656
0.037596382200717926 -0.35471731424331665 -0.040950097143650055 0.3973271296240834 -0.0413648253700002 -0.9167442954754593
0.10186107456684113 -0.11730709671974182 0.02411685138940811 0.5828842108561448 0.4334593285749218 0.6872837894247087
0.07636081427335739 -0.23116226494312286 0.0056253643706440926 0.44387371714334684 -0.3214084251106472 0.8364644328943351
0.002319830935448408 0.18247592449188232 -0.11502677947282791 -0.46844879820973373 -0.8767164107655553 0.10919733765169645
-0.057677026838064194 -0.21751242876052856 0.04679783061146736 0.319253407650089 -0.39371746985203937 0.8620114939124156
0.16314633190631866 0.11212650686502457 -0.22056744992733002 0.7748631690114206 0.024896447253132652 0.63163853288392
0.07828952372074127 0.1670641452074051 -0.20799869298934937 -0.25237711838362453 0.23699901346946062 -0.9381563077285578
0.09953594207763672 -0.07890807837247849 -0.016106948256492615 0.8983722242967214 0.4381558963372441 -0.030769418536389814
0.017851930111646652 0.17734456062316895 -0.0339224711060524 0.728805087865564 -0.11443967901264118 -0.6750901449204775
-0.031897760927677155 -0.02621372602880001 0.06924894452095032 0.16231611684765007 0.10350673107889787 0.9812949785018064
-0.06345578283071518 -0.07715907692909241 0.07268185913562775 -0.4529667431826963 0.17836259493644832 0.873503242293924
-0.09709134697914124 -0.41942378878593445 -0.007605766411870718 0.22403279896282094 -0.9680335996916632 -0.11278410728859324
-0.02485259436070919 0.09079515933990479 -0.04345748946070671 -0.09596193732690181 0.08304756758584877 -0.9919145165297973
-0.0866129919886589 0.00929529219865799 0.03544767200946808 -0.9330735771817334 0.08029228127490273 0.350609254203245
0.03004106506705284 -0.11581554263830185 0.054437920451164246 0.2299833821578196 0.12638966984675912 0.9649524834349501
-0.1044902428984642 -0.1931898146867752 0.0634881928563118 -0.0751097716009032 -0.6923507936217131 0.7176412061618564
0.027270348742604256 -0.30793851613998413 -0.012626749463379383 -0.7540366686326188 -0.018423855611613544 0.6565738830488347
0.0755319893360138 -0.15251600742340088 -0.04191971570253372 -0.49863490336933475 -0.40372341249207 -0.7670532180674378
-0.04014063999056816 0.2650666832923889 0.037059485912323 0.4761204242846903 0.3094696719290225 0.8231268819174294
0.049288392066955566 -0.2760627865791321 -0.04677468165755272 0.004260109877508599 0.03469487061329601 -0.9993888719697445
-0.0407865084707737 0.3276670277118683 -0.025589531287550926 -0.2204116732782983 -0.3721309044318163 -0.9016303478973071
0.12499453127384186 0.15359844267368317 -0.20008985698223114 0.47368463905147273 0.40601635497565547 0.7815200459482524
-0.09365382045507431 -0.2615431547164917 -0.017161168158054352 -0.25224668992562294 0.4533993743580073 -0.8548687704866369
0.0018807483138516545 0.25649914145469666 -0.03859781101346016 0.6686210510366074 0.6678395146160229 0.32701112034323465
-0.060318704694509506 -0.12333080917596817 -0.05887230485677719 -0.17231411270850536 0.13905404510125866 -0.9751778397310193
0.008338834159076214 0.21796630322933197 -0.12988464534282684 -0.2538035013822664 0.7042060948569278 -0.6630818642162202
-0.037021540105342865 -0.05618317797780037 0.07522720843553543 0.04899018027395312 0.15357873142562548 0.9869212407737616
0.08858802914619446 -0.05908365547657013 -0.021367957815527916 0.8914624695241707 0.44528675045822236 -0.08375186741932387
-0.09263940155506134 -0.119277223944664 -0.04633745178580284 -0.555069561228685 0.5016648474164915 -0.6634984273259308
0.13190427422523499 0.11839067190885544 -0.22708775103092194 -0.7540039931938919 -0.5635666103783611 -0.3374472609376316
-0.07816266268491745 -0.1024758517742157 -0.046653687953948975 -0.4729344847260911 0.4763873170013318 -0.7412071892238629
-0.08375091105699539 0.067903533577919 0.018741777166724205 -0.9996785393771271 0.021619084182546478 -0.013245116380075021
-0.05053418129682541 -0.011243563145399094 -0.04905729740858078 -0.5691620919355004 0.21214479184730073 -0.7943859895514715
0.08096299320459366 -0.21530099213123322 0.010716207325458527 0.41272110429116654 -0.26234912899941043 0.8722581180968916
-0.054828763008117676 0.3818647861480713 0.025472188368439674 -0.6774628211430987 0.49321017895357927 0.5456994093321086
-0.02309238724410534 0.2501426637172699 0.03204553574323654 0.7602414158660373 0.3394770913105761 0.5538847299549912
-0.08537659049034119 0.03026096522808075 0.03160606697201729 -0.9478230177626662 0.1547010113723494 0.27874562611751363
-0.0062789833173155785 0.4027174115180969 0.0097988061606884 0.16111616804001896 0.9827369927714404 0.09093724998396534
0.021317243576049805 0.08396697789430618 0.18744952976703644 0.2810690161152199 0.8394827571976515 0.46504721109565983
-0.10741446912288666 -0.36143797636032104 -0.04236803203821182 0.22836430070495964 0.06584384757061186 -0.971346660003849
-0.09868994355201721 -0.08716635406017303 0.02441369742155075 -0.9667231351698583 0.17932155983429648 0.18245590729256966
0.021504661068320274 -0.32710814476013184 -0.03788348287343979 -0.8857326744820023 0.09301707944038475 -0.4547806639330002
0.13801217079162598 0.1348848193883896 -0.20346836745738983 0.3984992576263912 -0.15889176269784513 0.9033004757100412
0.0007561306701973081 0.3476838767528534 -0.02391321025788784 0.36484553993909585 -0.1318328416476982 -0.9216874925101473
-0.08299073576927185 0.20012079179286957 -0.017034433782100677 -0.7349175792726665 0.021340209350573413 -0.6778205862474803
-0.008138047531247139 0.20203641057014465 0.05274597182869911 0.7189124452694033 0.5108284968574623 0.47140125459645615
-0.0924731120467186 0.1407092660665512 0.011393927037715912 -0.9846487328561461 -0.07936341151399441 -0.15546164092034515
-0.10257893055677414 -0.1678561568260193 0.06943795084953308 -0.2933893138714579 -0.03700997909549437 0.9552763851123853
0.04562819376587868 0.06706741452217102 0.16634966433048248 0.1906305587174293 -0.9808057796716403 -0.04098795732635054
-0.057357825338840485 0.008113979361951351 -0.03870682045817375 -0.6023918480586394 0.2623312166813917 -0.753860991262287
-0.0525614358484745 0.07039407640695572 0.14924262464046478 -0.06754488250713081 -0.9932070375354051 0.0947495089023829
-0.04151030257344246 -0.07496145367622375 -0.06614432483911514 -0.5195773519357918 0.16474714130588045 -0.8383899777471882
-0.07697681337594986 -0.1945088803768158 0.07110849022865295 -0.3411769944912701 -0.5885361320759751 0.7329553053706307
0.04866494983434677 -0.13704782724380493 0.051372382789850235 0.3931333670398041 0.07483880822253755 0.9164307439756575
-0.07928880304098129 -0.02868684008717537 -0.02583347074687481 -0.7919661686559344 0.03347131175454212 -0.6096468313653981
-0.09199850261211395 0.1556098610162735 0.0047538732178509235 -0.9048791993303053 -0.201797788553756 -0.3747949935019935
-0.09102610498666763 0.12523195147514343 0.012382515706121922 -0.9812729471464693 -0.08445949232402906 -0.17311844891533035
-0.1087905690073967 -0.31328073143959045 -0.02977091073989868 -0.35476898102672266 0.17137864024355726 -0.9191127959992346
-0.08491864055395126 0.13976900279521942 0.11456476897001266 0.9422479535049095 0.17950344533598078 0.28274954859083773
0.1559303253889084 0.0993521586060524 -0.2184118777513504 0.33106691278982875 -0.5169897966315653 0.789377127509193
-0.007311005610972643 0.1958218812942505 -0.09429879486560822 -0.5317710567225337 -0.7508560581144031 0.3917074459658636
0.0025856986176222563 0.18463250994682312 -0.10699436068534851 -0.14348097782545108 -0.9563801664066662 0.2544605790809448
-0.0937909334897995 -0.3323136568069458 -0.029984276741743088 0.6613454872880611 0.03844989498077351 -0.7490952890118083
0.03400148078799248 -0.2577393352985382 -0.037290651351213455 -0.7259191276290337 0.25069193201949524 -0.640464655826249
-0.09032715857028961 -0.32296162843704224 0.009495486505329609 0.6603668173188932 -0.4230291849881966 0.6204530403119465
-0.04219839349389076 -0.041943926364183426 -0.060043033212423325 -0.5553526415294482 0.04290289612732241 -0.8305075466545457
-0.09274429082870483 0.2471289336681366 0.07974063605070114 -0.6291881596029882 0.6360224934380343 0.4467635254318219
-0.053832124918699265 -0.11738010495901108 -0.061147015541791916 -0.46596144320369964 0.018204344691421993 -0.8846177339856359
0.012642922811210155 0.007202469743788242 0.046628981828689575 0.5475277979478727 -0.10645791896031878 0.8299879649518973
-0.049165524542331696 0.06983758509159088 -0.034675635397434235 -0.5911193942859675 -0.0472801542202511 -0.8051971489740263
-0.059170935302972794 0.20193146169185638 -0.046422090381383896 -0.722443587854939 -0.01627319470778981 -0.6912383420364393
-0.1229557991027832 -0.3287602365016937 -0.008638822473585606 -0.9900522007472897 0.01993341586195765 0.1392813653276085
-0.09067030996084213 -0.18387049436569214 -0.045788418501615524 0.1763881552560768 -0.8542470763627887 -0.48902878362217705
-0.04775266721844673 -0.23150400817394257 0.028340576216578484 0.8589785478323939 -0.5023506099345492 0.09899353040546828
0.07317684590816498 -0.033945776522159576 -0.013468561694025993 0.8349830934037684 0.4444737943612573 0.32441683041417674
-0.04359031468629837 0.1707800328731537 0.08159193396568298 -0.1879824302520422 -0.04701616322234218 0.9810464241371997
-0.1012396588921547 -0.30659618973731995 0.020679013803601265 -0.3447491528692157 -0.4558220946766076 0.8205938335136257
-0.06579353660345078 0.03427287936210632 0.056070104241371155 -0.5605059885377991 0.04014333106238711 0.8271768552035775
0.009831191971898079 0.18066714704036713 -0.16354362666606903 -0.9182246199765487 -0.14031632005871858 -0.3703712699361306
-0.05542196333408356 -0.19301873445510864 0.003605492878705263 0.3542477342377082 -0.4418994797274367 -0.8241561700333685
-0.09170230478048325 0.2441021054983139 0.08642105013132095 -0.5641582244387513 0.6076647017301156 0.5589893631093217
0.009152406826615334 0.20219478011131287 -0.08146796375513077 0.5535780424995257 -0.7324187734905504 0.39637619895875603
0.019335441291332245 -0.1273685097694397 -0.04628721997141838 0.6049682035841637 -0.30811383280657395 -0.7342202249225994
-0.005958259105682373 -0.13021783530712128 0.06794152408838272 0.4731710885603663 -0.0470529586829549 0.8797131009765503
0.01290399394929409 -0.09791439771652222 0.057328302413225174 0.3877583197079415 0.16005874877950044 0.9077580528072525
0.04240782558917999 -0.3635890781879425 -0.013401692733168602 0.350263127537977 0.07953883455798294 0.9332680832882226
-0.015459335409104824 0.0658394917845726 0.16083122789859772 -0.07063349275355522 -0.8939167825275532 -0.44263268701827785
0.023903287947177887 0.02631048671901226 0.044699668884277344 0.612165840942745 -0.09520855235679788 0.7849766332452098
-0.004418511874973774 -0.19219565391540527 0.035176098346710205 0.18014970101892516 -0.9507595160505855 -0.25219521776205095
-0.07476330548524857 -0.42025306820869446 0.028836140409111977 0.3102077611245337 0.9451005569636163 -0.10274279617163687
-0.07566557079553604 0.05799442157149315 0.04786195233464241 -0.796985493370215 -0.03492592245269069 0.6029878135570101
-0.09489455819129944 -0.3454883396625519 -0.028879763558506966 0.759602033405104 -0.1286023597869911 -0.6375470052506315
-0.04795394092798233 0.04008658602833748 -0.03234168887138367 -0.6412989115323677 0.2702003461134916 -0.7181416845076951
0.04712419956922531 -0.21370771527290344 -0.023093190044164658 -0.8803611940288947 0.26451783087264785 -0.39369338983331714
-0.05020171031355858 0.17616350948810577 -0.049471866339445114 -0.589210535104525 -0.2651713704591168 -0.7632267615923024
-0.031312573701143265 0.30318233370780945 -0.020077018067240715 0.04773783812324634 -0.16371180409208913 -0.9853524973390144
0.07014460861682892 -0.13233456015586853 -0.04662630334496498 -0.09589027827222248 -0.22510611391759008 -0.9696041934778319
0.013924125581979752 0.24539253115653992 -0.045846838504076004 0.8092169727487821 0.544413873723008 0.22086517406147435
-0.0949980691075325 -0.049204181879758835 0.006862897425889969 -0.9926597506658162 0.05944006895814811 -0.10532567403216594
0.0368167869746685 -0.10901961475610733 0.05146128684282303 0.32651982454154843 0.20677061426308796 0.9222964367591484
-0.019085241481661797 0.2748200297355652 -0.015559743158519268 0.7703429930822249 0.23548264347299389 -0.5925534555059909
0.01142128650099039 0.1616004854440689 -0.03808371722698212 0.6962263151624128 -0.1278894365406118 -0.7063378866354922
-0.008412244729697704 0.4013301432132721 0.015557599253952503 0.24162461078421307 0.9183167852529485 0.313547172505299
-0.10350336879491806 -0.40808531641960144 -0.04302136227488518 0.4152571481709871 -0.6379562819145486 -0.648516216650489
0.08672720193862915 -0.4234001338481903 -0.03178934007883072 0.3961635358799232 0.8339346542099972 -0.3841971438555591
0.05872918292880058 -0.010919448919594288 0.0023220099974423647 0.8750243473005246 0.22492755198091 0.42864902658371484
-0.10638350993394852 -0.11365476250648499 0.054611630737781525 -0.7683681035130869 0.3648688539570902 0.5258147743414422
-0.09162110835313797 -0.14341576397418976 -0.05954070761799812 -0.29006136344632627 0.2158020288736019 -0.9323593136606163
0.10634104907512665 -0.11727897822856903 0.01914081908762455 0.7104445354963603 0.4274897128054507 0.5590358731144845
0.06405960768461227 0.15277546644210815 -0.20167742669582367 -0.35665417824633416 -0.61917724230909 -0.6995836903087026
0.00963511597365141 0.21009384095668793 -0.0670446902513504 0.7213017767636831 -0.68563572028932 -0.09811934519196082
-0.11292942613363266 0.14866898953914642 0.11762607097625732 -0.5321328640881202 0.5148531743256961 0.672131552483685
0.05804010108113289 -0.41986000537872314 -0.0005560692516155541 -0.20559852802568981 0.16242522946057622 0.9650633606703494
0.016140863299369812 0.0031464421190321445 0.043861184269189835 0.538106660501405 -0.06886077958016718 0.8400591734869857
0.04564499482512474 -0.35052019357681274 -0.03625503182411194 0.7701438211608075 -0.17526134869244084 -0.6133204336905277
0.06639210134744644 -0.23204034566879272 -0.03893991932272911 0.2217906261497873 0.25718389168025485 -0.9405665122745357
-0.04315553978085518 -0.10214295238256454 -0.06873339414596558 -0.4581095754850047 0.04021793502344164 -0.8879854360018519
-0.07504617422819138 0.1690932661294937 0.06913778930902481 -0.03964392166644157 -0.5255695110584593 0.8498264814188111
-0.08898744732141495 -0.042070213705301285 0.03475983068346977 -0.9020256110648539 0.1540252163328615 0.4032691777419794
0.04076231271028519 -0.23451511561870575 -0.00011400693620089442 -0.8297513215705599 0.21305644328744577 0.5158679058883319
0.16833378374576569 0.09415365010499954 -0.22923143208026886 0.8666831508477895 -0.49805243094236645 0.028356517221744405
-0.10245457291603088 0.1407957673072815 0.08113493770360947 0.13655441469813195 -0.5643564077405968 -0.814158913768424
0.08253167569637299 -0.17735567688941956 0.02845214121043682 0.30346829770061173 -0.9197049567240259 0.24909794231978427
0.04070457071065903 0.1726362556219101 -0.15146034955978394 0.3061752753825498 -0.7477886846578302 0.5891254398191713
0.003845217637717724 0.08161136507987976 0.18608562648296356 -0.21438488738725672 0.5474654308692782 0.808900934640991
-0.07695013284683228 0.014644930139183998 -0.015697186812758446 -0.7543873936134203 0.23478813047959268 -0.613004236643637
-0.05932729318737984 -0.19708581268787384 0.004311570432037115 0.4005348835979382 -0.40672127112360135 -0.8210661451045148
0.016660436987876892 -0.17994152009487152 -0.003925649914890528 0.17971000439373608 -0.97703135228098 -0.11451659696656694
0.02068484202027321 0.39218440651893616 0.011592401191592216 0.8278451211139908 0.5550465150508982 -0.08121466356277594
-0.09642123430967331 0.1834123432636261 0.057755038142204285 -0.9000849178301836 -0.42765545501851215 0.08341434221727798
-0.03225814923644066 -0.19588011503219604 0.021476488560438156 0.5669557129740112 -0.7071552201008989 -0.4224839810101444
0.06570521742105484 -0.20498648285865784 0.013750437647104263 -0.012276166103067275 -0.2386323898384902 0.9710323775579168
-0.11518991738557816 -0.39396512508392334 -0.052609048783779144 0.028671920788567496 -0.0278323289782409 -0.9992013222679107
0.012304277159273624 0.1839262694120407 -0.04065171629190445 0.6794675751787191 -0.13792970505412788 -0.7206241813486647
0.08817972242832184 -0.08984289318323135 -0.03801063075661659 0.7042670279463087 -0.025553237335379002 -0.709475147844768
-0.014621350914239883 -0.18923205137252808 0.020324520766735077 0.2105996428698315 -0.9133345931147098 -0.34852218213922487
-0.12008996307849884 -0.13608300685882568 0.00906867440789938 -0.9365872487937889 0.3377899383483683 0.09328602761125175
-0.09330489486455917 -0.05593554675579071 -0.0044957492500543594 -0.916205705395276 0.1630097003778457 -0.3660531969316342
0.01525105256587267 -0.18026302754878998 -0.01614500768482685 0.19789415849085176 -0.980212912004755 -0.004533119715617592
0.023168783634901047 -0.06688081473112106 -0.07400628924369812 0.24852564659365467 -0.2291961066762078 -0.9411185619621335
-0.12933097779750824 -0.4129464626312256 -0.020052311941981316 -0.4418332480914606 -0.890987755354465 0.1045189011105739
0.04634523391723633 0.18156668543815613 -0.19396507740020752 -0.26090298214714974 0.3439177065292921 -0.9020256343598867
-0.004247824661433697 0.2309083193540573 -0.10483668744564056 -0.6851562249272326 0.18337840400107067 -0.7049349674895434
-0.1072973757982254 0.21193213760852814 0.06839282065629959 -0.9998649571961736 0.015545017994908632 0.005331021162213219
0.04219082370400429 -0.3927066922187805 -0.04273727908730507 0.4764283160743785 0.11852575717736762 -0.8711875254662821
0.10223452746868134 -0.0882050096988678 -0.022202827036380768 0.9213409122132877 0.21002089168566732 -0.3271423979516321
0.0453067384660244 -0.3186911344528198 -0.007313705049455166 0.09444917700914471 -0.22466438472631625 0.9698480639759205
-0.04578239470720291 0.10283943265676498 0.06677861511707306 -0.12501749444991966 -0.08497555649074957 0.9885088673757823
0.05198545381426811 -0.19121432304382324 0.01607615128159523 -0.12989185232616915 -0.6086843211413859 0.7827078023732271
-0.02820938639342785 0.3283552825450897 0.04385506361722946 -0.19369831600225032 -0.15192809703425064 0.9692258847706472
-0.03483577445149422 0.013851979747414589 0.06784188002347946 0.04182883074850482 0.030252159489429713 0.998666689023139
-0.04500889033079147 -0.18341928720474243 -0.012382077984511852 0.23841532118269182 -0.8993251468524824 -0.36656843135233946
-0.027161626145243645 0.18333043158054352 0.0812770426273346 0.17064881115695404 0.15718402058583317 0.9727138155301336
-0.10602811723947525 0.23302596807479858 0.05547085031867027 -0.9761498584300461 0.20928859571130276 0.05770387848482882
0.06668955087661743 -0.15597450733184814 -0.029186135157942772 -0.5893487916005435 -0.4138175580241759 -0.6938465468025958
-0.07762742042541504 0.18806175887584686 -0.021904008463025093 -0.7666927573411926 -0.09020579490204755 -0.635645443943909
-0.06057727709412575 -0.2193927764892578 0.04648725315928459 0.26846885563295675 -0.39592529832217055 0.8781615066168813
-0.014351863414049149 -0.11874479800462723 0.07337085157632828 0.4362314422093371 0.034706412030298985 0.8991649424838275
0.006485370919108391 0.1696644127368927 0.04371048882603645 0.8647332176174289 -0.031695105437416604 0.5012303688328547
-0.07192492485046387 -0.20195983350276947 0.06887166202068329 -0.08582061409934409 -0.8145947116018791 0.5736464747785545
-0.02804260514676571 0.3083432614803314 -0.02137509547173977 0.046762279490599634 -0.29502014714742014 -0.9543460598723913
0.07563672959804535 -0.4268416464328766 -0.04018045961856842 0.5327260943980041 0.7171822546383618 -0.44928000398335655
-0.07320558279752731 0.11429280042648315 0.15092192590236664 0.17888109488979378 0.8486060814055211 0.4978647130422025
0.03591326251626015 0.19411632418632507 -0.18245530128479004 -0.13488507247909184 0.7622192657591006 -0.6331096335769719
0.04316715896129608 0.15962134301662445 -0.172555610537529 -0.08620940657049414 -0.9629026134469948 0.255707831784071
-0.017001064494252205 -0.13074150681495667 -0.061923179775476456 0.06712243691598438 -0.5642003281164 -0.8229049569760815
0.02894188091158867 0.3549167513847351 0.017625650390982628 0.980543646569449 -0.10687687089053487 0.1646556760058261
-0.02210097573697567 0.145426407456398 0.07120224088430405 0.38398672047091276 -0.16661006496356756 0.9081824072039874
-0.08262908458709717 -0.3204195499420166 -0.018704432994127274 0.9258158590897383 -0.3527896218889434 -0.13566310384694244
-0.0052039665170013905 -0.0626085177063942 -0.07697896659374237 -0.11911101077413333 -0.009465876009061963 -0.9928358194101103
0.030493948608636856 0.20079751312732697 -0.16811469197273254 -0.05759256447583271 0.9726802183563631 -0.22489172802776675
0.03212057426571846 0.17067813873291016 0.0067130327224731445 0.9763727812431269 -0.10252651471067697 0.1902222537686967
-0.08513887226581573 -0.1266905665397644 -0.05573113262653351 -0.4461094825436004 0.4247323343642827 -0.7877745703754016
0.011880186386406422 -0.1880768984556198 0.03096269629895687 0.12523982487258348 -0.967037615470354 -0.22170529206876524
-0.021714508533477783 -0.051112961024045944 -0.07294834405183792 -0.3352724203039462 0.08214869497123505 -0.9385328955865411
-0.03716474026441574 -0.08209295570850372 0.07869978994131088 0.11908585240254413 0.11075271396415884 0.986687587895547
-0.06609490513801575 0.34936007857322693 -0.024506516754627228 -0.6127294723524459 -0.27983365184803755 -0.7390911452615871
0.02568650059401989 -0.12263011187314987 -0.040928103029727936 0.3815184497221515 -0.40520758589378464 -0.8308131467759386
0.06633259356021881 -0.022270025685429573 -0.012307881377637386 0.8844121441117954 0.3245861513646842 0.3353490564916489
0.07132534682750702 0.14716200530529022 -0.1868126392364502 -0.08169945739988604 -0.9946587944127523 0.063079960034344
-0.021226918324828148 -0.07493393868207932 -0.07448060065507889 -0.20940774028174136 0.003294732017922399 -0.9778228587280136
0.013160498812794685 -0.16120482981204987 0.05365440249443054 0.23310339770031768 -0.0814930284264684 0.9690313164694164
0.07402346283197403 -0.03282196447253227 -0.01638224720954895 0.8446603226958956 0.44100580434443715 0.3034185554605739
0.07596784085035324 -0.4283050000667572 -0.029650097712874413 0.04790804842527182 0.98256527534886 -0.17963935697586078
0.022363770753145218 -0.3034811317920685 -0.02683437429368496 -0.9993267358540682 0.03651864512090387 -0.0035303775700273135
-0.035167329013347626 0.3518483340740204 0.04271229729056358 -0.23790115128787262 -0.03890973041481696 0.9705096986094219
-0.12577418982982635 -0.4118937849998474 -0.008378135040402412 -0.4714606123893656 -0.7902703242412622 0.39140478483157876
0.02166035585105419 0.3909114599227905 0.012980437837541103 0.8335172296459936 0.5469571607327244 -0.07801853758219779
0.03517696261405945 0.162399560213089 -0.16845457255840302 -0.1700489612264067 -0.9335792997198724 0.3154568780679424
-0.07790935039520264 -0.19155167043209076 0.07258939743041992 -0.2981795116973177 -0.5063701617698961 0.8091218932108305
-0.03307703509926796 0.12372744083404541 0.06952663511037827 0.21798711819392103 -0.1388153239668286 0.9660289447700281
-0.07831867784261703 -0.4143097400665283 0.05020371824502945 0.012488019440666936 0.9933641358386592 0.11433172350648584
-0.10638850927352905 -0.23587030172348022 0.018774723634123802 -0.9790795985762928 0.20276738399579766 0.01698610135334577
0.0676397755742073 0.17966531217098236 -0.1679869443178177 0.4787734496324321 0.32893605423859085 0.8139883636447194
-0.05861791968345642 -0.07303296774625778 0.07414625585079193 -0.30915670507742615 0.1754937297199663 0.9346785985217833
