ply
format ascii 1.0
comment VCGLIB generated
element vertex 393
property float x
property float y
property float z
property float nx
property float ny
property float nz
element face 0
property list uchar int vertex_indices
end_header
0.0534147284924984 -0.2260531783103943 -0.04436064139008522 0.0010214397748543953 0.36058248865112813 -0.9327267689623503
0.08533914387226105 -0.1966588795185089 -0.005526597145944834 0.9253405869461042 -0.22778008026928429 0.3030858511754679
-0.10219623148441315 0.09611492604017258 0.14798898994922638 -0.3766666583132221 -0.14821276822445315 0.9144152250757831
-0.029495472088456154 0.23248009383678436 0.04866534098982811 0.743272714125704 0.4216618612164255 0.519371685050032
-0.10538210719823837 0.0848938524723053 0.13585706055164337 -0.3845757303672248 -0.897420959582866 0.21618771684321775
-0.05250968039035797 0.2926713228225708 0.03179246932268143 -0.311909724941456 0.12449409247815064 0.9419201369675599
-0.089114710688591 -0.007776482496410608 0.007263379171490669 -0.9877868908220981 0.019417105866106205 -0.15459635933551863
-0.06040354445576668 -0.19417569041252136 0.01003247033804655 0.17154940571538949 -0.642121273828762 -0.7471620112768212
-0.1267630159854889 -0.3730873763561249 -0.04094693809747696 -0.13842164605021137 0.4711999993118914 -0.871097014432505
-0.08698699623346329 -0.4182823896408081 0.04980868101119995 -0.08927163510780571 0.9947579408472522 -0.049871978971299545
-0.1019250750541687 -0.16289450228214264 0.05279804393649101 -0.9938058058042416 0.11107046412030784 -0.003656822374899589
-0.05027155950665474 0.2285863757133484 0.07988986372947693 0.6771129252903358 0.3388791169011715 0.6532067287873314
-0.08284804970026016 -0.11139407008886337 0.026123328134417534 -0.9875676752903702 -0.050952776202444885 0.1487074353179346
0.020060209557414055 -0.08957642316818237 -0.07244257628917694 0.21306440858891917 -0.5228256853026972 -0.8253828569702786
-0.06115022674202919 0.04580965265631676 0.059497278183698654 -0.5628035659527263 -0.075987459279354 0.8230905492004897
-0.01288946159183979 0.3870493769645691 -0.021903958171606064 0.3217954131003499 0.5543906945258767 -0.7675276346364939
-0.05368395522236824 0.24554987251758575 0.06619662046432495 0.6294484518331875 0.5565278363101215 0.5422835180021406
-0.08561298996210098 -0.09434019029140472 0.05424473434686661 -0.9379333880919276 0.22915960000974853 0.26032064310340364
-0.05826442316174507 -0.1465071141719818 0.0886855348944664 -0.47661612283596194 0.11026958939097502 0.8721683834606487
-0.013026861473917961 0.04396405816078186 -0.05875774472951889 -0.3295468869392049 0.38818331180105115 -0.8606465974764828
0.07334945350885391 0.17825955152511597 -0.1850597858428955 0.41342163619192857 0.9098423792894345 0.03562857809862135
0.07699217647314072 -0.1526535600423813 -0.051625147461891174 -0.03844102365788953 -0.2000328407504901 -0.9790348054698682
-0.0036395771894603968 0.18321095407009125 -0.11660167574882507 -0.45345659302310903 -0.8690452162968457 0.1978320759519117
0.03778917342424393 -0.15225069224834442 -0.02367367222905159 -0.007155229602890688 -0.267159681572382 -0.9636257090963656
-0.05849648639559746 0.2031647264957428 0.08520056307315826 0.4099229490273591 -0.1879822719863215 0.8925389858597628
0.0182799119502306 -0.3190913498401642 -0.033684469759464264 -0.9646171757469026 0.10227674771755502 -0.24300858242125692
-0.039880599826574326 -0.13062506914138794 -0.07225281000137329 -0.0825694940462511 -0.38551520198343125 -0.9189996233364954
0.010013195686042309 0.38576263189315796 0.03153756260871887 0.39411894484296217 0.67762583975121 0.6208812113579679
0.07311757653951645 -0.2772890031337738 -0.017200687900185585 0.8244751278369976 -0.21730405982595719 0.5225128794214773
-0.07367570698261261 0.13907936215400696 -0.023014243692159653 -0.7340449266076292 -0.06797558679642851 -0.675690288017581
-0.08969394862651825 -0.13813599944114685 0.04143312945961952 -0.9488085858444655 0.1385146053492013 -0.28385906984414044
-0.07794484496116638 0.38492271304130554 -0.007668061647564173 -0.6711388561755544 0.7002556024606107 -0.24334076303384916
-0.09083861857652664 -0.341677188873291 -0.007751976605504751 0.9180527234700468 -0.3874158190621518 0.08419133013340457
0.013249275274574757 -0.0033193123526871204 0.04540012404322624 0.5678849237810158 -0.018238950791637447 0.8229058597532588
0.08526846021413803 -0.18602244555950165 -0.006214997265487909 0.8818019191108113 -0.4691546875016834 0.048158640426075275
0.05050172656774521 -0.4114546775817871 -0.005237562581896782 -0.5023060978260673 0.10361800375560978 0.8584590225423995
-5.0203838327433914e-05 0.3815959393978119 -0.018802937120199203 0.4850259507512321 0.4174546232261485 -0.768427917663705
-0.015552562661468983 -0.031109174713492393 -0.07829534262418747 -0.45067887328095313 0.12223951746104558 -0.8842771361677862
-0.01081846747547388 -0.09330009669065475 0.0755598172545433 0.5041665271370374 0.1810071034678032 0.8444243846602104
0.05289091914892197 0.027514344081282616 -0.031156204640865326 0.9528360726660966 0.2965382308468772 -0.06456389294685824
-0.0725829154253006 0.031337447464466095 0.05046529695391655 -0.7336586138278418 -0.00032033220220755685 0.6795181643955444
-0.07031113654375076 -0.07117028534412384 0.06453761458396912 -0.7040584767617364 0.18245376385542456 0.6863033479117908
-0.1230553463101387 0.17006564140319824 0.0952611118555069 -0.906232501097279 0.3811427961235891 -0.18295579498354927
-0.08873973041772842 -0.4014849066734314 -0.00477216113358736 0.9908562564077775 0.13110823988743955 0.03185135116729302
0.0012748270528391004 -0.17582759261131287 -0.03270680084824562 -0.1656267941390174 -0.7416510200998276 -0.6500165609029639
-0.10631638765335083 -0.25967031717300415 0.005138013046234846 -0.7648817013869782 0.43061685199877675 -0.4790877890930066
-0.058103617280721664 -0.015049261040985584 0.06322132050991058 -0.5046386917797981 0.06271826662896098 0.8610494816152162
0.027441293001174927 0.04339929297566414 0.036510370671749115 0.7595431360161574 0.09286592859708254 0.6437935568460922
-0.00350128673017025 0.2851431667804718 0.015776505693793297 0.5209923956318232 -0.7716408315931375 0.36487991272755094
-0.10376498103141785 -0.368133008480072 -0.03561430051922798 0.7902938902409278 0.20096735709676347 -0.5788330402019244
0.022043706849217415 -0.1469058245420456 -0.035241205245256424 0.5398482534096894 -0.22651408750754443 -0.8107127922088885
-0.09088485687971115 -0.4177477955818176 0.05922959744930267 -0.04366524144327352 0.9972438681089693 0.059983449457008814
0.018817735835909843 0.11619985103607178 0.026190323755145073 0.8956656384386452 0.13329299650738652 0.4242829730290577
0.0856684073805809 -0.19538603723049164 -0.0067634484730660915 0.9521459285493217 -0.2504669384846813 0.1751697561597345
0.02692452073097229 0.095893494784832 -0.021299974992871284 0.837991344386611 0.4407117488863448 -0.321782008705676
0.02493036910891533 0.3562627136707306 0.017429465427994728 0.9809809992372545 -0.1607724999504583 0.10875882674596038
-0.0652313306927681 0.3811337649822235 -0.023097993806004524 -0.43280904948456506 0.5539660742043174 -0.7111947098473976
-0.015592369250953197 0.2455187290906906 0.012018986977636814 0.8205730478176803 0.362761652133967 0.44166034114038105
-0.014643408358097076 0.20862512290477753 -0.12220211327075958 -0.8947685799018528 0.2987379475940165 -0.33188074226706227
0.04251812770962715 -0.3086514174938202 -0.04910329356789589 0.1332119857297314 -0.08382931870505915 -0.9875359295657994
0.09397938847541809 -0.1170898824930191 -0.0427049919962883 0.561157163575873 -0.0549487788120142 -0.8258833267929251
0.08508870005607605 -0.4272245764732361 0.0026393274310976267 -0.1908129294820738 -0.9516260385682372 -0.24082838009959082
0.04646482691168785 -0.15601913630962372 0.04627213999629021 0.5853467208636083 -0.073010954141885 0.8074890816286698
0.03349084034562111 0.19337113201618195 -0.18585138022899628 0.06131708795138346 0.7033418708170411 -0.7082022504064408
0.020405475050210953 0.3278847336769104 0.025148669257760048 0.7828118077333217 0.015643155781734756 0.6220618661760883
0.030759327113628387 -0.14524433016777039 -0.027881288900971413 0.28624560696025114 -0.3820741262613963 -0.8786824309940129
-0.10175593942403793 0.11947562545537949 0.11079670488834381 0.7861465357556843 -0.07371585770560493 -0.6136282234725388
0.026502441614866257 -0.14398159086704254 -0.03160839155316353 0.4297041801932411 -0.4705178117714233 -0.7706927444385903
-0.11043523252010345 0.21775014698505402 0.06659828126430511 -0.9991966873627671 -0.00823262832292249 -0.039219941282074906
0.04612293839454651 0.04521231725811958 -0.035296421498060226 0.9083548653221036 0.36421978778411485 -0.20551249312914627
0.0936765968799591 -0.4316432774066925 -0.00403385516256094 -0.5067685743946823 -0.8494542708017321 -0.14701378786589692
-0.0053129615262150764 -0.3907657861709595 -0.05172319337725639 -0.859362166469465 -0.15433273374272402 -0.48752238321579155
-0.07020753622055054 -0.20801012217998505 0.05980689823627472 -0.4056103750064012 -0.7993066242032841 0.44338374371633943
-0.05867220088839531 -0.16044723987579346 0.08845740556716919 -0.5298114248666188 0.04338684529613057 0.8470049797587101
-0.004073174204677343 0.39145714044570923 -0.013904481194913387 0.36635989846301803 0.7340621878088587 -0.5717806653144536
-0.03657722845673561 0.18717676401138306 -0.06210741028189659 -0.256325481481026 -0.37855054077708095 -0.8893799725769069
0.04820510372519493 -0.20064818859100342 -0.030229702591896057 -0.42303273307584977 0.3654445319787252 -0.829152338712994
0.07904884219169617 -0.4184349775314331 -0.005347879137843847 -0.3541554723975313 -0.7510836874993069 -0.5571778851886756
0.06918895989656448 -0.2747330963611603 -0.011295867152512074 0.7324461813912119 -0.08793910330520152 0.6751216967890376
-0.0715281143784523 0.24987268447875977 0.08490544557571411 0.41886184617448874 0.664853410213609 0.6184858096566431
-0.08008867502212524 0.18379610776901245 0.09377022832632065 0.9202475477200082 -0.27046029717910197 0.2828350730816515
0.11751320958137512 -0.12757906317710876 -0.0035455345641821623 0.9268897062300065 0.3099095077584039 0.21173466765221982
-0.03689884394407272 0.09359893947839737 0.06898454576730728 0.028951935878991093 -0.06827872202405272 0.9972461088054548
0.05705397576093674 0.014681118540465832 -0.023897234350442886 0.9331143429449708 0.3445109229929409 0.10300411122342475
-0.1201426088809967 -0.38638561964035034 -0.050120510160923004 0.18359565920223433 0.14405320534205854 -0.9723894836703941
-0.10591653734445572 0.1702553629875183 0.022586217150092125 -0.9239807256298983 -0.3167856320644114 -0.2142579799727378
-0.0909966379404068 -0.13589756190776825 0.06118525192141533 -0.8765063383763398 0.33278953658210575 0.3478329529063753
-0.02195429801940918 0.10919228196144104 -0.04358895123004913 -0.017644966726771925 -0.1368023750350075 -0.9904411973125876
-0.002627946902066469 0.3614099323749542 -0.02488705888390541 0.44991862021494633 0.01858578766892804 -0.8928761412875834
0.033828768879175186 0.04883233457803726 -0.05257336050271988 0.5264988105816444 0.529907371098451 -0.6648286850848438
0.0007762064342387021 -0.013057506643235683 -0.08332671225070953 -0.33797484505823344 0.15220648587593338 -0.928765949938499
0.15340514481067657 0.11854346841573715 -0.20756006240844727 0.9114138555116846 0.3165319459765051 0.2629302400973554
0.04253973811864853 0.0329204760491848 -0.0578380711376667 0.6676430115834568 0.4612667729379335 -0.5843678407195225
0.08051276952028275 -0.039505451917648315 -0.03737732395529747 0.9353638251028027 0.35365854067355285 -0.004489019682143866
-0.04538590461015701 0.3538060486316681 -0.034326206892728806 -0.13042081256122545 -0.15734045497247168 -0.9788944748439053
-0.04994945600628853 0.15763650834560394 -0.044627267867326736 -0.47234764262265616 -0.18738722894468324 -0.8612628698238722
-0.06185724586248398 0.05611901357769966 -0.019738472998142242 -0.7410999242355452 -0.19612557074772172 -0.642110319802563
-0.04665113985538483 0.37377598881721497 -0.03340469300746918 -0.08172532942599221 0.19098134924948565 -0.9781856136588082
-0.029267486184835434 -0.04536723718047142 -0.07226600497961044 -0.562274755780699 0.10780599325717631 -0.8198932655105718
-0.031064888462424278 0.11502500623464584 0.06939086318016052 0.2738180515675717 -0.08505438555868348 0.9580132703323965
-0.08848951756954193 -0.22534726560115814 0.017346162348985672 -0.6294339219757789 0.5510764948977965 -0.5478390590651128
0.02743329480290413 -0.1039666011929512 -0.060121651738882065 0.04003167391117548 -0.6084350650465034 -0.7925933615074798
-0.013834632001817226 0.25775134563446045 -0.07343873381614685 0.06871702594944379 0.9531192653391581 -0.2946890503293376
-0.12924957275390625 0.12695904076099396 0.13353505730628967 -0.6278295179085387 0.2586732411162245 0.7341105167297083
-0.05135723203420639 0.26421260833740234 0.04311702400445938 0.4469089465466968 0.5510280650106638 0.7047272274200319
-0.0796702429652214 -0.31698378920555115 0.0031642382964491844 0.8571259526360335 -0.5087813092002809 0.080477827544115
0.022541005164384842 0.08806227147579193 -0.034497883170843124 0.6628578433746576 0.3991117353958146 -0.6335055659945216
0.05600019544363022 0.010716824792325497 -0.014403557404875755 0.9306548210859124 0.30318497256526894 0.20484256491302208
-0.03511752560734749 0.23385892808437347 -0.07835736870765686 -0.7616665282974634 0.1815858414182635 -0.6220053712531033
0.010797558352351189 -0.35168975591659546 -0.03417447581887245 -0.9746758389176076 0.21872897445703854 -0.046525743016421546
-0.09566154330968857 -0.3607417941093445 -0.017714472487568855 0.9815911560738653 -0.15880914356982256 -0.1061058821941187
-0.09845015406608582 -0.12424542009830475 -0.01460676733404398 -0.8810688757679197 0.45101462615063037 -0.14249015106757804
0.04816633090376854 -0.034059226512908936 0.017966309562325478 0.723542686042252 0.14365258227818792 0.6751665846882322
0.0653168261051178 -0.046758901327848434 -0.06733974069356918 0.6777021487302622 0.10860802157592861 -0.7272716791239353
-0.07077393680810928 0.2658316493034363 -0.000667225627694279 -0.8258967361245997 0.3591647957051065 -0.43462078963717593
-0.01379198208451271 -0.05025335028767586 -0.08224138617515564 -0.44141100295382757 0.10642600944791288 -0.8909712851625965
-0.09549372643232346 0.2311410754919052 0.09835514426231384 -0.5095224008305591 0.47264269302073714 0.7190242052851689
-0.06013977527618408 -0.2110360711812973 0.05818101763725281 -0.31131279391500755 -0.8488481523800748 0.42724835698427854
-0.10099843144416809 0.17578262090682983 0.004536590073257685 -0.8788901175318786 -0.17864852374801837 -0.44230856454228246
-0.09737864136695862 0.2530689537525177 0.022234369069337845 -0.7718448569987096 0.4809485313527563 -0.41586539518727517
0.05224929749965668 -0.23791912198066711 0.0032485874835401773 -0.07076193670440002 -0.08263006448476341 0.994064897658642
0.041479744017124176 -0.04073168337345123 0.024534521624445915 0.6784415967742149 0.1369811243832769 0.7217708579106992
-0.018164310604333878 0.2634172737598419 0.00045723404036834836 0.9989362741406512 0.03480941858716796 0.0302427608464758
-0.010939208790659904 0.07766501605510712 -0.047336604446172714 -0.06416212338413889 0.2117256009422112 -0.9752207400524756
0.06949184834957123 -0.20902763307094574 0.005252224393188953 0.34438069411171024 -0.16095780719479444 0.9249294685683768
-0.0965077131986618 -0.15708616375923157 0.06401188671588898 -0.7535309624111493 0.10236701452429404 0.649393627182397
-0.08747430145740509 0.20635519921779633 -0.014982294291257858 -0.8018163783554035 0.06297844734505696 -0.594242551969337
-0.06031741201877594 0.3908032476902008 0.01137737650424242 -0.49077580364259543 0.8088521425773466 0.3238785605856004
-0.08196614682674408 -0.18457695841789246 -0.0366259329020977 0.0919726587010585 -0.8269556806455738 -0.5546939086554621
-0.086520254611969 -0.11100398749113083 -0.028791289776563644 -0.8376000759698999 0.4459715257181998 -0.3154924895838238
-0.07046197354793549 0.11980412900447845 -0.025996733456850052 -0.7120048563357656 -0.05781706722527513 -0.699790162328504
0.0767182856798172 0.1438695788383484 -0.1870959997177124 -0.12966521262113878 -0.930389920272829 0.34287246738493565
-0.0732216089963913 0.14130015671253204 0.07325168699026108 -0.3991891315614492 -0.23376970484344473 0.88656627633845
-0.0070047564804553986 -0.19299276173114777 0.07700572907924652 0.40701946319284826 -0.491863659243097 0.7696786974434178
0.09817947447299957 -0.08849658071994781 -0.0027818577364087105 0.7490527062988618 0.4141248796407966 0.5171272834117795
0.054022371768951416 -0.04864783212542534 0.01589522697031498 0.6628148146592744 0.29211216855496586 0.6894541336813544
0.03235424682497978 0.011485420167446136 -0.07580485194921494 0.3267264132538465 0.41831033900992903 -0.8475059357666324
-0.10432834178209305 0.23592893779277802 0.02029436267912388 -0.8207998735389432 0.3254826473638671 -0.469413052506493
0.007318156771361828 0.04377869516611099 0.18529780209064484 -0.6122801442747339 -0.6759164627779692 0.41018283761345903
-0.04290980473160744 0.23934148252010345 0.05818697810173035 0.6726184828676559 0.4710854252379541 0.5706688169448098
0.037348393350839615 -0.1682690978050232 0.05382103472948074 0.3890896874315316 -0.20882677837347585 0.8972182520259986
-0.06715446710586548 0.07306930422782898 -0.014203025959432125 -0.7499165766851236 -0.12128019448105909 -0.6503201076696781
-0.04809277877211571 -0.20324715971946716 0.015805155038833618 0.34922262846791885 -0.3258869655400745 -0.8785449569925492
0.0024364369455724955 0.18346892297267914 -0.11747059226036072 0.0569444637057295 -0.911880282997615 0.40648699552809353
-0.0929851159453392 0.12579332292079926 0.007452595047652721 -0.9391160043878065 -0.05750174952393135 -0.33875460012281555
0.018873684108257294 -0.11963105946779251 -0.05060162767767906 0.3779613800035032 -0.46782196297850276 -0.7989291621794689
-0.0999658927321434 0.11258580535650253 0.14769339561462402 -0.05807286501241185 0.3216305457869647 0.9450827129759751
0.023429667577147484 0.3295111358165741 0.0021052116062492132 0.8852602281893944 0.15519257461126157 -0.4384399538951593
-0.09156915545463562 -0.13904139399528503 -0.05185285210609436 -0.5831985926262675 0.42252717219587654 -0.693794054684023
-0.12930601835250854 -0.4070472717285156 -0.031656742095947266 -0.8434315123378487 -0.5360073660111727 0.03632337508071418
-0.12516437470912933 -0.3668619990348816 -0.03900844603776932 -0.49785566509603885 0.47329180348848776 -0.7267287014301799
0.03712625429034233 -0.3166016936302185 -0.009686468169093132 -0.12851916459017076 -0.24948004953612643 0.9598137992425909
0.017362112179398537 0.19521862268447876 -0.028775278478860855 0.8367046184982485 0.07423498570716293 -0.5425998049029854
-0.09229389578104019 -0.19853328168392181 0.03214329481124878 -0.787445690242215 -0.3020941015448644 -0.5372787346720163
0.046532221138477325 -0.06345170736312866 -0.07967114448547363 0.32804361063400334 -0.167912429249729 -0.9296197102179263
-0.008312038145959377 -0.19454774260520935 0.045611076056957245 0.2062675609517265 -0.947709779093913 -0.24351564202077994
0.004101578611880541 -0.38093701004981995 -0.05261803790926933 -0.5021564581825283 0.2619462868548401 -0.8241498858269294
-0.08658295124769211 0.08485887199640274 0.036575816571712494 -0.9230594148577865 -0.15308760976806057 0.3528817087607446
-0.014660468325018883 0.10658702254295349 0.06338939070701599 0.47943972575614485 0.03597723642882756 0.8768370360710231
0.026816517114639282 -0.026910778135061264 -0.08875603973865509 0.06556502457214569 0.09730536406748173 -0.9930925906865627
-0.03616821765899658 0.4023018181324005 -0.001272328314371407 -0.1666788626168604 0.9798357988510301 -0.11018150501201836
0.028846943750977516 0.09426835924386978 -0.014582200907170773 0.8854469548963197 0.3989828531476616 -0.23831989627176817
-0.10054346174001694 -0.3908042311668396 -0.03624940291047096 0.7462138846695503 -0.06893083722969315 -0.6621279166484316
-0.11340662091970444 -0.3748369812965393 -0.004601879511028528 -0.10449721352444925 -0.42580952400594413 0.8987583555280346
-0.07117347419261932 0.12771186232566833 -0.024387001991271973 -0.736598768248104 -0.02660096465533438 -0.6758066611796467
-0.09877800196409225 -0.234847754240036 0.035165488719940186 -0.8675786135401106 0.4561439141976991 0.19809108730132632
0.013824177905917168 0.17527034878730774 -0.030702518299221992 0.740347374214303 -0.1339664030342538 -0.6587402890001876
-0.076804518699646 0.11596193164587021 -0.02085079811513424 -0.7726069848436445 -0.0723332423210038 -0.6307506234845459
0.019083144143223763 -0.1714436262845993 0.053112443536520004 0.20690882453763762 -0.3909980419016967 0.8968329106123905
-0.09145887196063995 0.25189208984375 0.08215271681547165 -0.27403753481831067 0.7395527754311287 0.6147886806560592
-0.0031489983666688204 0.14294838905334473 -0.04158793389797211 0.5222215416122131 -0.11483245540363983 -0.8450432939572592
0.028404945507645607 0.1770123839378357 -0.0013980497606098652 0.9944850283148465 -0.03894989426376585 0.0973777910740453
0.05490006506443024 -0.18830622732639313 0.010291039943695068 0.028148600336048723 -0.5772169010818763 0.8161055724626299
0.0004955474869348109 -0.10494273155927658 -0.07590711116790771 0.4339291469938352 -0.3483075656434431 -0.8308955019163007
-0.056604307144880295 -0.24009495973587036 0.009116175584495068 0.5914867614734806 -0.10112413142217938 -0.7999483239845707
0.15433810651302338 0.10253693908452988 -0.20166531205177307 0.6133269767347795 -0.29085557775011894 0.7343248957382691
-0.06507077813148499 0.05857917666435242 -0.017569977790117264 -0.7136919570068905 -0.22635129249909275 -0.6628792370316517
-0.08178946375846863 -0.05049813911318779 -0.00839503388851881 -0.8938897843668058 -0.061703377474022374 -0.44401998447475727
0.04259401932358742 -0.4215257465839386 -0.017925294116139412 -0.4246545023777776 -0.8539028376043405 0.300862921513332
-0.07870784401893616 0.018148427829146385 0.044857971370220184 -0.7746962527918183 0.028231975385928185 0.6317029930878305
-0.028561905026435852 0.20776498317718506 -0.07901982963085175 -0.69543573679951 -0.42924108960745705 -0.5762995948070117
0.06298905611038208 -0.42539164423942566 -0.03606243059039116 0.14649336883160116 -0.948199167487961 0.28188301059749277
-0.09373745322227478 -0.10280134528875351 0.007014743983745575 -0.9640007398657958 0.16952112978151418 0.2048539970217752
0.06144086644053459 -0.025693364441394806 -0.002829013392329216 0.8579346021998906 0.21891623678686015 0.4647837127301203
0.01646076887845993 -0.33828672766685486 -0.040380146354436874 -0.5907893989285389 0.2800264189309836 -0.756672380105383
0.07897335290908813 -0.03679521754384041 -0.033333487808704376 0.919028909086688 0.38825749783850416 0.06813207493623087
-0.06882529705762863 -0.2629576325416565 0.043444931507110596 0.49266593687244664 -0.44962665675578295 0.7450611680796495
-0.12593558430671692 -0.4081153869628906 -0.04405679553747177 -0.9314659958480447 -0.24452555299426973 -0.2694036980289192
-0.10299276560544968 -0.35615435242652893 0.0025115632452070713 0.24248374044831097 -0.43688469229135046 0.8662178717041621
-0.0696289911866188 -0.2569922208786011 -0.0030186923686414957 0.41553181557796964 0.3565237426075792 -0.8367939598249745
-0.05761648342013359 0.25234904885292053 -0.04085375368595123 -0.67997062435534 0.5529132067416056 -0.4815879315602954
-0.08885228633880615 -0.2801246643066406 -0.017067844048142433 0.02526022709516434 0.37701418693957495 -0.9258629616597653
-0.04371771961450577 -0.22787021100521088 0.02531089074909687 0.8946757120330338 -0.3130763731053786 -0.31865114922335686
-0.08570972830057144 -0.11283507943153381 0.019354773685336113 -0.9250136835958733 -0.026330965012419636 0.3790202704894664
-0.07273800671100616 -0.016331641003489494 -0.02780519239604473 -0.7855914265314881 0.1439327234406924 -0.6017719515590327
0.005214047618210316 0.11256576329469681 -0.03573291748762131 0.46338903287143024 0.18108318059235343 -0.8674557544457455
0.014952672645449638 0.2971613109111786 0.00020877817587461323 0.687892051948051 -0.529962658794884 -0.49592752005687013
-0.00895006861537695 0.38535651564598083 -0.021195683628320694 0.35387678809428835 0.595548290731073 -0.721175049662263
0.02629866823554039 0.19312430918216705 -0.009758234024047852 0.9726034526414197 0.18316807824663842 -0.14315019742013335
-0.03246792405843735 0.26936212182044983 0.033273905515670776 0.5980938419668874 -0.010085501747409832 0.8013626138370763
-0.07893068343400955 0.22067540884017944 -0.02335187792778015 -0.8201235212061504 0.12228273283434996 -0.5589672112163541
0.0777122974395752 -0.03373241052031517 -0.043478768318891525 0.9134935997188952 0.3830503985440417 -0.13711978503434727
0.0011209413642063737 0.07360195368528366 0.16948935389518738 0.00776230112250176 0.9700828267654521 0.2426500688152253
-0.062083650380373 0.20405110716819763 0.08720863610506058 0.4251245198491413 -0.2086379772627066 0.8807606582192256
0.056310150772333145 -0.4226585626602173 -0.03934716433286667 -0.17255708634707398 -0.7993720047269974 -0.5755244999217234
0.019856881350278854 0.1842501163482666 -0.12801380455493927 0.43476188022382073 -0.7999093352413349 0.41367519009243686
-0.11357796937227249 -0.1822141408920288 -0.02592739462852478 -0.8356139553113789 -0.4751248304793369 -0.27569133673522334
-0.0626508817076683 -0.2552640736103058 0.04250391945242882 0.40931030741762414 -0.4374118028681929 0.8007096770698399
-0.04912755638360977 -0.15583175420761108 -0.05602691322565079 0.1595915540634641 -0.6222492189476003 -0.7663787871481763
-0.006297766696661711 -0.007766918279230595 -0.07955479621887207 -0.3978291030125691 0.16738023052471676 -0.9020620063087167
0.049452632665634155 -0.2707418203353882 -0.050920359790325165 0.10808495931407931 -0.010714159473739765 -0.9940839242019988
0.044970445334911346 -0.19427135586738586 -0.024886390194296837 -0.6975939696274732 0.1155009555033048 -0.7071224666330491
-0.05279777944087982 0.3784543573856354 -0.03058541752398014 -0.2548079903637658 0.37288084629694895 -0.8922066814991078
-0.03684461861848831 0.15918628871440887 -0.05115869268774986 -0.333372770279079 -0.2732348041780443 -0.9023332742519463
0.000638203346170485 0.2029673010110855 -0.15988509356975555 -0.6199466614551354 0.5836978198912613 -0.5243691371589486
-0.09089326858520508 -0.12577266991138458 0.04558431729674339 -0.9658440656617163 0.1039683925029499 -0.23735166775567187
0.08279557526111603 -0.05553678795695305 -0.050943661481142044 0.8402292163082017 0.21252158354096873 -0.49884811374941007
0.11722452193498611 -0.1595427393913269 0.003311895066872239 0.9303812550158121 -0.3213671881732893 0.17639118651677574
-0.07922343164682388 0.03643755987286568 0.041987232863903046 -0.8878698976505155 0.03067518961572647 0.45907088514531447
0.11799904704093933 -0.17180697619915009 -0.008905131369829178 0.7649917702728964 -0.6236311327309979 -0.16084713769101536
-0.05711774900555611 0.21099521219730377 -0.053757838904857635 -0.6864715488195338 -0.004038184522284786 -0.7271454501866009
0.09603425115346909 -0.1532965898513794 -0.04356611147522926 0.8140153615228303 -0.3572993111988635 -0.457947806438325
-0.09318481385707855 0.16866493225097656 -0.006081991828978062 -0.8009097386825512 -0.13404069238309374 -0.5835894818011274
0.04198828712105751 0.022490743547677994 0.01730574481189251 0.8690998139511913 -0.0017818616738613097 0.49463353946025546
-0.09128240495920181 -0.16840477287769318 -0.05708407983183861 -0.21863441138118886 -0.5131442512815025 -0.8299891394089126
-0.08504173904657364 -0.10957145690917969 0.03742743283510208 -0.9824798549636156 0.11842206824590173 -0.14390812465957592
0.0444302074611187 -0.19239921867847443 0.006654690019786358 -0.2481704000718407 -0.8052548022058831 0.5384943417089421
0.03725793957710266 -0.12167775630950928 0.05236402899026871 0.4191645547919716 0.12275748288072826 0.8995730522880485
-0.03921221196651459 -0.22297737002372742 0.04176259785890579 0.9159538924751679 -0.34895384483320807 0.1981405587851968
-0.05352556332945824 0.03879530355334282 -0.028338313102722168 -0.7399377838978893 0.1947611523361004 -0.6438634711652733
-0.030714092776179314 -0.11782929301261902 0.08829993009567261 0.19046813210381924 0.13206245547750378 0.9727699617618414
-0.09269845485687256 0.13479118049144745 0.05436255410313606 -0.8455951255114432 -0.24321120023126616 0.475202268295674
0.032214779406785965 -0.0843641608953476 -0.07609866559505463 0.06314012193614374 -0.4472482564606174 -0.8921784138247387
-0.08826084434986115 0.016161873936653137 0.009117485955357552 -0.9528563489871504 0.2117267984580434 -0.21733969036875211
-0.05473838001489639 -0.01886524073779583 0.06544271111488342 -0.4381097104612472 0.07343313012115808 0.895917103866296
0.03378799930214882 -0.009065124206244946 -0.08390678465366364 0.3544215385165347 0.22739951658013294 -0.9070142407342315
0.027698861435055733 -0.2761845290660858 -0.005423813126981258 -0.7737671167639529 -0.035890531597896604 0.6324526217483961
-0.12603150308132172 -0.4084577262401581 -0.013524742797017097 -0.7395389820311904 -0.6462412713389925 0.1882931578003655
-0.08586309105157852 -0.10453389585018158 0.04046015068888664 -0.9834064674532643 0.08261449851691811 -0.16151335674144704
-0.022468917071819305 0.11458982527256012 0.0669039711356163 0.4086410182222723 -0.06916359215223201 0.9100708300714094
0.004233952611684799 0.23414428532123566 -0.019431333988904953 0.8010787143208987 0.5566296202312172 0.22008261935742893
-0.10611838847398758 -0.2530154585838318 0.014962899498641491 -0.8754193050630543 0.45174902359397634 -0.17194144353473392
-0.03387090191245079 0.07675560563802719 0.14175796508789062 0.46392206512790407 0.3127744215857739 -0.8288235509981273
-0.10636142641305923 -0.38022634387016296 -0.04180441051721573 0.497348299972966 0.23291420667836035 -0.8357006885490706
0.04258063808083534 -0.3017597794532776 -0.049541227519512177 -0.0220497198178149 -0.052786572008601526 -0.9983623528917427
0.03062339313328266 0.18701259791851044 -0.14415913820266724 0.8628201958698498 -0.2357300319246065 0.44718302924858194
-0.018225686624646187 0.1978222131729126 -0.09309723228216171 -0.742331397757434 -0.6698257826668559 0.0166588348400584
-0.10294420272111893 0.2345181256532669 0.08750459551811218 -0.772528537600284 0.44140333372099 0.45646769389866243
-0.03171710669994354 0.12724296748638153 -0.04560605809092522 -0.14862643218883853 -0.12992436211776057 -0.9803212961999294
-0.095272496342659 0.12327227741479874 0.1316978931427002 0.5575044866245681 0.665720541295343 0.4959888187156163
0.053598884493112564 -0.3395039439201355 -0.02219676598906517 0.9542854248386758 -0.2676005187941277 0.13315138107275487
-0.12362456321716309 -0.37861379981040955 -0.013470431789755821 -0.8599738509826861 0.17660177028678864 0.4788076757504844
0.022012371569871902 -0.13231287896633148 -0.03978722169995308 0.6018205547862779 -0.38094505979688953 -0.7019208511314371
0.01245566364377737 -0.3918732702732086 -0.056021057069301605 -0.12244808365593221 -0.12407208007505884 -0.98468908075333
-0.10498403757810593 0.24736014008522034 0.044909652322530746 -0.8772074787151425 0.4795990734424071 -0.022175843600807817
-0.037928566336631775 -0.20275169610977173 0.07997390627861023 0.15412061058246168 -0.913965437439031 0.3753851576189049
0.016551412642002106 0.0692974105477333 0.176489919424057 0.2810128195034383 0.730751958890782 0.6221200606410412
-0.10964756458997726 -0.1805877685546875 -0.005389717873185873 -0.8283106834554982 -0.30216624785125973 0.4718018337533002
0.058181408792734146 -0.03469487279653549 0.0049571082927286625 0.7639118945460023 0.25207762863680083 0.5940500707112025
0.02437605895102024 0.30811259150505066 0.013806112110614777 0.9335063397129104 -0.35777827761135583 0.023677368630315374
-0.1030842736363411 -0.2447270154953003 0.02122083306312561 -0.8962042717377634 0.4416639194429516 -0.04184358470871111
-0.04823281988501549 0.18824385106563568 -0.05809594318270683 -0.5493572540055942 -0.19782827295364552 -0.8118316216381394
0.06832828372716904 -0.2990432679653168 -0.025589868426322937 0.919463613991286 -0.3858660854336223 0.07545877456078968
-0.008172627538442612 0.18375250697135925 -0.14778447151184082 -0.9095903314046668 -0.4084383598759967 -0.07631209076518822
-0.08235422521829605 0.016413064673542976 0.03867282345890999 -0.8771894282802346 0.06217768391271276 0.4761015044469467
-0.11205467581748962 0.20442207157611847 0.07931424677371979 -0.9983677498190836 -0.018215034669254473 -0.05412992363912596
-0.0006592843565158546 0.23765884339809418 -0.10817717015743256 -0.0520822144984555 0.7054597063477526 -0.7068338175644114
-0.10872183740139008 0.09065069258213043 0.1194482147693634 -0.30169872292568295 -0.6396383787246362 -0.7069940770950849
-0.0574115626513958 0.32802432775497437 0.030165666714310646 -0.598732905793184 -0.2721363893001631 0.7532998693343312
0.002723673125728965 0.3727565109729767 0.04212121292948723 0.3132521057527611 0.25727366556337206 0.9141571961369922
-0.05568286031484604 0.23821872472763062 0.07822363823652267 0.6622697095277066 0.4588772843839092 0.5923094374721174
0.048811111599206924 -0.1875094622373581 0.011011620983481407 0.03873107476107717 -0.7007041871237595 0.7123998498000147
0.08995700627565384 -0.09633734077215195 0.011613119393587112 0.503153523310201 0.4374153584878515 0.7453216326791243
-0.023812701925635338 0.2144608199596405 -0.09174945950508118 -0.8860973639253705 -0.16112320297945382 -0.434592654224794
0.037140484899282455 -0.34711378812789917 -0.043873220682144165 0.215512467550596 -0.047748907280911294 -0.9753329781073397
-0.04018719494342804 0.21287240087985992 -0.06811124086380005 -0.696992258340583 -0.17935573568487723 -0.6942861887508857
0.01627374067902565 -0.34799909591674805 -0.04298999160528183 -0.5690253264252825 0.14108050233392627 -0.8101274404362612
-0.06536240875720978 0.22772613167762756 -0.0425623282790184 -0.7914895025060049 0.15084893167785499 -0.5922744019746646
-0.09645995497703552 0.11920392513275146 0.015203910879790783 -0.9665908989474357 -0.1249811436864483 -0.22378951672233352
-0.04664433375000954 -0.01617281511425972 -0.05509292334318161 -0.6539641652409762 0.1688494871214134 -0.7374420121470627
-0.07877921313047409 -0.06138421222567558 -0.013734245672821999 -0.873253800368688 0.04511391021635954 -0.485172686006368
0.013272308744490147 -0.15085414052009583 -0.041862647980451584 0.5783614199811141 -0.29740010752437823 -0.7596388904748872
-0.07435274124145508 0.148938849568367 -0.02578919194638729 -0.6980725219605249 -0.11129271852475131 -0.707325020685005
0.12846770882606506 0.105314239859581 -0.20542755722999573 -0.7375419130796852 -0.6061477313623307 0.29768583139789806
-0.06881400942802429 -0.028872663155198097 -0.0327908881008625 -0.8072758739664221 -0.08734903389661623 -0.5836744037467098
0.07532384991645813 -0.13803820312023163 0.03539217263460159 0.1234086459759079 0.24850598351964887 0.9607367393065206
0.07451648265123367 -0.11461828649044037 0.026989642530679703 0.3276696057118895 0.3616656411261035 0.8728290746311441
-0.011526433750987053 0.2788723409175873 0.009128826670348644 0.7316872589214529 -0.6811294617213461 -0.02638960983417588
0.00047058917698450387 0.2543419599533081 -0.05345583334565163 0.604866192021173 0.7902054131502163 0.09855097552993292
0.08912590891122818 -0.12937207520008087 -0.042604297399520874 0.5711618643477285 -0.040433931071499854 -0.8198409735631247
0.019579913467168808 0.3380289077758789 0.0025329063646495342 0.8897422358067079 0.25046019605947994 -0.38161295052910305
-0.07892764359712601 -0.1992538571357727 0.054648760706186295 -0.45796909185369244 -0.86073109779066 0.22227525323973762
-0.0523022897541523 0.0066932798363268375 0.06603365391492844 -0.3362011617247462 0.0312800992904598 0.9412705956542519
-0.09324466437101364 0.2477329820394516 0.08561971038579941 -0.5205320107981364 0.6779371102221163 0.519083519597892
-0.007858681492507458 -0.16910682618618011 -0.02611609734594822 -0.2175151895014855 -0.7476813780631718 -0.6274230624018289
0.06571806967258453 -0.20735502243041992 -0.03675075247883797 0.19836021418711874 0.36399668491686393 -0.9100327679799084
-0.05235585197806358 0.007831942290067673 -0.042422808706760406 -0.6846703580400744 0.22306722717525615 -0.6938786010402822
0.028859710320830345 0.08747004717588425 -0.02576855570077896 0.7797259591454445 0.48092877803453044 -0.40091762133003106
0.036935433745384216 -0.1745472252368927 -0.017095433548092842 -0.4938269681967086 -0.6315870695598857 -0.5976894670699854
-0.04588909447193146 -0.2335740476846695 0.02742266096174717 0.9281995992881796 -0.3301085517109393 -0.17167949198599378
0.020902790129184723 0.3563954532146454 0.029145965352654457 0.8272437927619628 -0.06746783847607192 0.5577775525316248
-0.03436984121799469 -0.02297689951956272 -0.0663115531206131 -0.6084624806124201 0.12929086212820137 -0.7829797460069619
-0.009617768228054047 0.21130545437335968 0.035622574388980865 0.7336604946308588 0.5120801425432562 0.4466723701225342
-0.06691516935825348 -0.0656726211309433 -0.032796747982501984 -0.8208767243510968 0.16676748593457064 -0.5462142519686539
0.05146199092268944 -0.28287890553474426 -0.049322232604026794 0.1634018443422079 -0.07118284159269654 -0.9839882318037925
-0.03700666129589081 -0.10216667503118515 0.08646386861801147 -0.10531637380702975 0.1334075081265512 0.9854495919039199
-0.08657407760620117 -0.2112843096256256 0.04714152589440346 -0.7557036115930696 -0.42137429307096336 0.5013539234554139
-0.0038237343542277813 0.3238644003868103 0.043002329766750336 0.22909354737016546 -0.1070675918146884 0.9674981536604382
0.03109019063413143 -0.37545570731163025 -0.04788156598806381 0.4113510704554446 0.09471959295596633 -0.9065420539309889
0.00785833690315485 0.06966014951467514 0.17764799296855927 0.02948614157863012 0.7181255344858859 0.6952886337156431
0.004142965190112591 0.19436141848564148 -0.0452343113720417 0.7330023300341632 -0.23956863941750944 -0.6366431113050162
-0.006497117690742016 -0.06695092469453812 0.06568068265914917 0.5877536643337758 0.18415266008510764 0.7878029118033252
0.05611184984445572 -0.1759624034166336 -0.02569900080561638 -0.16780439354669408 -0.18513307647534794 -0.9682806563704551
0.019279565662145615 -0.18294063210487366 0.014864582568407059 0.04603468623655064 -0.9989374232813063 -0.002198188164547438
0.03086915612220764 0.19828496873378754 -0.16011537611484528 0.6451542045609998 0.738124069675428 -0.19735478231613118
-0.0007165247807279229 0.24090273678302765 -0.0195002481341362 0.7498396428339137 0.6084889167500613 0.2597724932071245
0.06920145452022552 -0.012664147652685642 -0.03651159629225731 0.9388358294814675 0.33960501329037696 0.05705891893374662
-0.06344687938690186 0.24575752019882202 -0.038391683250665665 -0.7517415381585437 0.35353936550236964 -0.5566817554466903
-0.028401125222444534 0.16939960420131683 -0.05541527643799782 0.034284843011728815 -0.33378704405052084 -0.9420248185497433
-0.10203731805086136 -0.41750189661979675 0.0503784716129303 0.025402941027357077 0.9530634817509307 0.3017029836444348
-0.11055585741996765 0.2118190973997116 0.046806853264570236 -0.9968405516940061 -0.018232071754557693 0.07730786543377263
-0.013259154744446278 0.06305897980928421 0.06339150667190552 0.36516688610754006 0.0076497282359911205 0.9309106439118839
0.010677017271518707 0.33620765805244446 -0.01602425053715706 0.7004663675489009 0.1400136445523587 -0.6998164382693608
0.07280436903238297 -0.16837741434574127 -0.03702603280544281 0.046283251663941954 -0.7999378608629998 -0.5982953111744571
0.005622284021228552 0.15039871633052826 0.03779419884085655 0.8506839642519354 0.04816378670397482 0.523466372000099
0.012682672590017319 -0.0994907096028328 0.06067770719528198 0.5372836959485241 0.14315828618994533 0.831163001560495
-0.003154053119942546 0.387347549200058 -0.017177488654851913 0.39028491761595796 0.6267331298225935 -0.6744503444022258
0.06590616703033447 -0.40536972880363464 -0.020714834332466125 -0.6938875016428553 -0.6749058454196001 -0.25104229699851666
-0.0026483098044991493 -0.02389320731163025 -0.08361633867025375 -0.35164872981210993 0.127371628730489 -0.9274263523407518
0.06625094264745712 -0.060697589069604874 0.011307480745017529 0.5850539243559069 0.3867763765139756 0.7128225165961527
0.02341335453093052 -0.17649517953395844 -0.02946019545197487 0.23708791613030009 -0.7305937220778375 -0.6403297067022921
0.07490560412406921 -0.06306489557027817 0.004779983777552843 0.6211739298198862 0.4106334160761641 0.6674752029204825
0.039795126765966415 -0.06450314074754715 0.03302673622965813 0.5621884716350851 0.29154406373300107 0.7739161332228802
-0.05115225166082382 0.16479159891605377 -0.04713190346956253 -0.4911807100522479 -0.2904126630369811 -0.8212198214974713
-0.0067346664145588875 -0.07679951936006546 0.0684315413236618 0.569328492069594 0.19907003982776522 0.797644148327269
-0.08182748407125473 0.20174282789230347 -0.02293483167886734 -0.810779683132708 0.009286929409195937 -0.5852777617177797
-0.11267223209142685 -0.28690093755722046 0.02163107693195343 -0.9000636272319484 -0.006615067630898034 0.4357082829305713
0.021883560344576836 0.10559196770191193 -0.019896386191248894 0.8297907679735504 0.2952074834372655 -0.47360302269780974
0.025275807827711105 0.17528770864009857 -0.016159866005182266 0.9121880676512352 -0.164471669377003 -0.3753158659143623
-0.0561220608651638 -0.24732059240341187 0.04030054435133934 0.7790335762314546 -0.5381200892308505 0.321766152151235
0.05219674110412598 -0.010136780329048634 -0.07243232429027557 0.6364576756911849 0.2547289119447715 -0.7280348950930905
0.06297759711742401 -0.1462898999452591 -0.04542072117328644 -0.6208027465671622 -0.2171286315449465 -0.7532988166843796
0.011756141670048237 0.09379619359970093 -0.03782627359032631 0.4618792544846668 0.3304586095359814 -0.8230824148651424
0.01594560593366623 -0.02818942628800869 0.04360119625926018 0.5575739671911241 0.03963359813695212 0.8291805889005541
0.07101443409919739 -0.018929632380604744 -0.035524699836969376 0.941539394172955 0.3217564734136317 0.09988163513303097
-0.009979994036257267 0.13782529532909393 -0.0444098524749279 0.33483358568126337 -0.10103770475779901 -0.9368446253873179
-0.0618189312517643 0.3493385910987854 0.03303810954093933 -0.6312318162559528 -0.048583950065425915 0.7740710522569949
-0.08710072934627533 -0.4082680642604828 -0.0035905255936086178 0.6565029293402826 -0.5678491355060525 -0.4965392865349695
-0.0921175479888916 -0.1916913241147995 0.0692494586110115 -0.3763396069588826 -0.3816362618643903 0.8442287982912029
-0.05199084058403969 0.34837546944618225 -0.03209079056978226 -0.2063196086147424 -0.22314081064705144 -0.9527016310077548
0.04348401725292206 0.18028567731380463 -0.19536888599395752 -0.08142154155892152 0.4690815986414227 -0.8793935332865349
-0.03941552713513374 0.26311585307121277 0.036932323127985 0.5197592322938274 0.36165638670430494 0.7739864329568817
0.1439453661441803 0.09542149305343628 -0.22900427877902985 -0.551478287103396 -0.5083615290637954 -0.6613926629631027
-0.06263164430856705 0.3409138321876526 -0.025938991457223892 -0.5126721171626466 -0.38257111059429616 -0.7686394770128687
-0.05278419330716133 0.09748967736959457 0.06825262308120728 -0.15051330843471672 -0.1587781969311898 0.9757741686288464
0.03329404816031456 -0.11545592546463013 0.05276213213801384 0.3923219981026131 0.15886829207577002 0.906004589159294
-0.09655547887086868 -0.1681182086467743 -0.05435439944267273 -0.5123640554748988 -0.4198626525793384 -0.7491317825498772
0.04888545349240303 -0.18572700023651123 -0.025598464533686638 -0.28883017241830927 0.04895756252418957 -0.9561277574532075
-0.06801387667655945 0.24864521622657776 -0.028826214373111725 -0.8131632276447296 0.4417728217919077 -0.3789489927845452
-0.05516430735588074 0.1321585327386856 0.07583467662334442 -0.1056822065569912 -0.23187063035750058 0.9669887703561303
-0.1029481366276741 0.23585185408592224 0.01735743135213852 -0.8207998735389429 0.3254826473638672 -0.4694130525064933
-0.0658097043633461 0.29587414860725403 0.013139455579221249 -0.96917340527754 0.11207312584830034 0.21941404915211815
-0.08023618906736374 -0.27281612157821655 -0.01275044959038496 0.23945657571256548 0.38047260053545984 -0.8932531268290063
-0.05956125259399414 -0.18007084727287292 -0.03249567374587059 0.33099570996419087 -0.750640762732769 -0.5718218999909569
-0.06303292512893677 -0.11690279096364975 -0.0565597265958786 -0.5664077907247708 0.32148505675110295 -0.7588343514180313
-0.017060142010450363 0.2013942152261734 -0.11521971970796585 -0.9694724746013552 -0.21934375931660757 -0.10959669812171734
-0.09170816093683243 0.1485169380903244 0.0998060330748558 0.9116305805436007 -0.4030710895239879 -0.08039515786216751
0.018294718116521835 0.19433322548866272 0.016002612188458443 0.8215998617606359 0.17376202768404372 0.5429368516595956
0.022894730791449547 0.1629137247800827 -0.17332831025123596 -0.171861660690521 -0.9728516523991017 0.15499429669840684
0.05372833088040352 0.024429019540548325 -0.029983989894390106 0.9596124672643491 0.2798873311065305 -0.02840764961928359
0.012617764063179493 -0.19143156707286835 0.048072393983602524 0.17478025797426464 -0.9417648632812262 -0.2872817497011306
0.012595361098647118 0.19024822115898132 -0.18600814044475555 -0.5794872991714979 0.4542484112795039 -0.6766482475769591
0.02399924397468567 0.19735975563526154 -0.012415185570716858 0.961909735482197 0.2184186235683439 -0.16438663468506198
-0.012369530275464058 0.22569327056407928 -0.1101432740688324 -0.5528861434693146 0.5735656725596416 -0.6044330662867764
0.02248571813106537 0.06955773383378983 -0.047990430146455765 0.4390640535825666 0.46393111888259403 -0.7694093018569438
-0.022546090185642242 0.1363314837217331 -0.04786456748843193 0.1311854514811819 -0.10047414803171613 -0.986253173833666
0.020946014672517776 0.19255569577217102 -0.1895013302564621 -0.07073710373970964 0.7492184083899788 -0.6585347664961242
0.05447562783956528 -0.06450018286705017 0.02235165797173977 0.5800626028532038 0.3152627776617767 0.7510903792435021
-0.09276565909385681 -0.3483751118183136 -0.007801681291311979 0.9542529912021687 -0.2805926239912167 0.10329089090252601
-0.12271041423082352 -0.4090781509876251 -0.012223714962601662 -0.7107280466514951 -0.6714276609642296 0.20988220456973916
-0.08418821543455124 0.02411762997508049 0.004171233624219894 -0.8972232853178748 0.2636758359487302 -0.3542109961874954
-0.08205024152994156 0.16612154245376587 -0.01777658425271511 -0.7532698737524932 -0.08011959346252798 -0.652813409819607
0.09022162109613419 -0.15776421129703522 -0.03204789012670517 0.7499649760916198 -0.3774694297292689 -0.543202875780087
0.003667321288958192 0.3827294409275055 0.03770056366920471 0.3225428301796605 0.5894425976829406 0.7406237551797011
0.05165746435523033 -0.34047383069992065 -0.03444308415055275 0.8430446137960971 -0.33302146182240205 -0.4223416686937958
0.07025498151779175 -0.15896691381931305 -0.05011055991053581 -0.3722854755334801 -0.40060889596366733 -0.8372072844771372
0.1348390430212021 0.12071515619754791 -0.19061040878295898 0.2153099730071781 -0.09677024286771775 0.9717392323143959
0.0061392285861074924 -0.19792670011520386 0.06522539258003235 0.32647542490085407 -0.9342582025424291 0.14344130478351286
-0.044936683028936386 -0.055210262537002563 -0.06097593531012535 -0.6585296877193384 0.11156637830364638 -0.744238935842837
-0.0779857188463211 0.23875212669372559 -0.02013755403459072 -0.8236780552465213 0.3877984583363047 -0.4137231163680539
-0.04066671431064606 0.3893304467201233 0.034112561494112015 -0.3089189913041183 0.5970721690056965 0.7403201211708885
0.07957741618156433 -0.19498951733112335 -0.021041294559836388 0.8345535652951237 -0.3217690793032303 -0.44719683167208313
0.07170950621366501 -0.4220602810382843 0.0021532936953008175 -0.2060586193807203 -0.7322100446034631 -0.649159684485032
