ply
format ascii 1.0
comment VCGLIB generated
element vertex 393
property float x
property float y
property float z
property float nx
property float ny
property float nz
element face 0
property list uchar int vertex_indices
end_header
-0.05354804918169975 0.24594621360301971 0.06226058304309845 0.6462609522027816 0.5530371676973647 0.525829509254883
0.07872483134269714 -0.1699262261390686 0.00983066763728857 0.2057291231138574 -0.9655323158856852 0.15944552324611905
0.012097113765776157 0.36702683568000793 0.034493979066610336 0.755094076654995 0.08658818166015224 0.6498733893592882
-0.11934494227170944 0.19786518812179565 0.09089890122413635 -0.9806269856697414 0.13979655068116553 -0.13721384548916837
-0.08507528156042099 0.27021557092666626 0.0439988411962986 -0.46808934700618193 0.8593830441984406 0.20579880117130755
0.06252250075340271 -0.06419847160577774 0.007313802372664213 0.6682118293754912 0.35659543252476233 0.6529415353499401
-0.05518421158194542 0.004799406509846449 0.06721539795398712 -0.39561777342081217 0.026908946818000535 0.9180209615987562
0.10472258925437927 -0.1248682290315628 -0.04760191962122917 0.5697210641006033 -0.08104483599966865 -0.817832283342901
0.0013235661899670959 0.16596293449401855 -0.1736934781074524 -0.5465931154219669 -0.8221782347568138 -0.15893053975079166
-0.07884951680898666 0.24144038558006287 0.09827674180269241 0.15987056406373168 0.5096774773238657 0.8453817314413204
-0.031596019864082336 -0.20508471131324768 0.08171168714761734 0.17382682319934098 -0.9845214284492131 0.022400724558508285
-0.03514682129025459 0.2680447995662689 -0.024082999676465988 0.6223550626504442 0.6588102248075297 -0.42266211526751957
0.02511570416390896 -0.3550500273704529 -0.01979670487344265 -0.4604792445564311 -0.012344252614246529 0.8875846352659188
-0.08151799440383911 -0.03477362543344498 0.04075277969241142 -0.9162975214589537 -0.02969561903548643 0.39939582168354937
0.08693742007017136 -0.0682842805981636 -0.022945458069443703 0.8304727014364118 0.4373162539120147 0.34506461167913294
-0.08971942961215973 0.15826797485351562 0.07335241883993149 -0.5104170890626428 -0.5456661279532963 0.6646223529172601
0.08041249960660934 -0.16442207992076874 0.027809830382466316 0.29396448160735766 -0.4051418833957607 0.865704879200674
-0.08476734161376953 -0.041339728981256485 0.03251146525144577 -0.9374953224429675 -0.06568927510999036 0.3417417731754205
-0.13475042581558228 0.14701156318187714 0.13166950643062592 -0.23498256294732997 0.6377295867920801 0.7335422068570472
0.05365299433469772 0.1779879629611969 -0.1734427660703659 0.5068474679923858 0.8510444554893942 0.1372187267484586
-0.08930564671754837 0.00178786541800946 0.026422923430800438 -0.9698336553904023 -0.0043272365507202445 0.24372926762275535
0.031692564487457275 0.07885796576738358 -0.007764793001115322 0.9395558288448513 0.3422527492230468 0.009894449602206314
-0.027217257767915726 0.03779880702495575 0.13405552506446838 -0.2754532317049973 -0.6946083078360876 -0.6645636281262766
0.026310313493013382 -0.28793951869010925 -0.00915504153817892 -0.5309502124486487 -0.23547491714272675 0.8140291366390767
-0.05637560412287712 0.07981907576322556 0.13345010578632355 0.45996665017265104 0.47490012635813483 -0.7502669862881995
-0.027429791167378426 0.3262375295162201 0.04435314983129501 -0.08282604519151926 -0.2108897907189788 0.9739945289417379
-0.08532366156578064 0.17318086326122284 -0.019023103639483452 -0.7919783590709425 -0.0719265386912283 -0.606297659401054
-0.08677500486373901 0.0847119390964508 0.04498494043946266 -0.8986075247383144 -0.20985523458538088 0.3853119476486483
-0.0408654622733593 -0.07201004773378372 0.08446625620126724 -0.23334931244933285 0.17897277176651089 0.9557807517132976
-0.10267437249422073 0.2519179880619049 0.06821279227733612 -0.7830162086849167 0.5999600934743826 0.16411429911774597
-0.03220616281032562 0.06673207134008408 -0.04643561318516731 -0.38702112590113313 0.09189345891128753 -0.9174803759838892
-0.04490072652697563 0.3577767014503479 -0.03381359204649925 -0.06788280440433628 0.0008521940706932551 -0.9976929380483098
0.050003208220005035 0.014182842336595058 -0.017999939620494843 0.9516389749266784 0.23481174486146275 0.19810781376719167
-0.052339281886816025 -0.2069355696439743 0.08657694607973099 -0.165078618073602 -0.9096010818595515 0.38128063383135985
0.08268655091524124 0.1590004563331604 -0.1851285994052887 0.34018925426366176 0.5979039074238275 -0.7257976224615599
-0.07179631292819977 -0.014653977006673813 -0.031021663919091225 -0.7906972629804824 0.15076889725849357 -0.5933519848577503
-0.06406325846910477 -0.0993613451719284 0.07556749135255814 -0.7006645668429332 0.12374081890487652 0.7026787135722523
0.09587258100509644 -0.14204606413841248 -0.04301086440682411 0.5154748803085312 -0.423412763067287 -0.7449881071820081
0.1493034064769745 0.08320524543523788 -0.1770920306444168 0.3200806869689079 -0.613166454184084 0.7222016707906661
0.13822807371616364 0.11231600493192673 -0.19993405044078827 0.2272023325806117 0.5105302361336996 -0.8292996913439664
-0.012383144348859787 -0.10418413579463959 -0.08256153762340546 0.11592060454157163 -0.2136008981114428 -0.9700191079399939
0.04414527118206024 0.041538819670677185 -0.015552792698144913 0.9677621490632504 0.22309939260169132 0.11688919480104046
-0.07491320371627808 -0.09491121768951416 0.040807370096445084 -0.98964607698352 -0.13091232006144288 0.05884391869394241
-0.1067667305469513 -0.40105798840522766 0.034681811928749084 0.043991597498337545 0.7730565977118322 0.6328097945542173
-0.04963157698512077 0.387989342212677 -0.02343490906059742 -0.14804951180774648 0.7076512769637833 -0.6908769877952335
-0.13547390699386597 -0.40075889229774475 0.005246003158390522 -0.9531792724411645 0.020599089908596543 0.30170341742093315
0.05163341015577316 -0.1896456480026245 0.0031833196990191936 0.12095593586533565 -0.4733257705655571 0.872543624409383
0.05173272639513016 -0.14743737876415253 -0.05061095952987671 -0.574229360875527 -0.4477412163464249 -0.6854111498167416
-0.004460559226572514 0.24465757608413696 -0.08951379358768463 0.4563561798139602 0.7937274577797746 -0.4021638470972554
-0.11581481993198395 0.20093978941440582 0.0483105294406414 -0.9940401087796207 0.043501806559173295 0.09995926652135906
-0.12585757672786713 -0.351982444524765 -0.020243678241968155 -0.9502429651813749 0.27460540541104306 -0.14707201787677116
-0.04719890281558037 0.376513808965683 0.04154427349567413 -0.383583148717906 0.4507432685466935 0.806036273302573
-0.048746805638074875 0.0915420725941658 0.07140210270881653 -0.11213920173105231 -0.11315204325837301 0.9872291600948474
-0.06535457074642181 0.10976428538560867 0.07267744839191437 -0.253781137138251 -0.2932441112236674 0.9217391310264839
-0.03402254730463028 0.3787015974521637 -0.029915031045675278 0.11698322808373512 0.44230043628813265 -0.8892048405212584
0.005752991884946823 -0.03941170498728752 -0.09561068564653397 -0.1775153352719112 0.09445056349631127 -0.9795751103404631
0.0401693731546402 -0.07316131889820099 -0.08948672562837601 0.21864495420295024 -0.17328624008929536 -0.9602948833547459
-0.02090383879840374 0.2556934654712677 -0.07433423399925232 -0.036382048605675586 0.9195962504732454 -0.39117653643182954
-0.09563618153333664 -0.3095851242542267 0.032809942960739136 -0.13763259318747895 -0.4416452757002325 0.8865702001218829
0.023764824494719505 -0.41403645277023315 -0.035885583609342575 0.5464615080238282 0.8305794407110846 0.10732014217464257
-0.0805434137582779 0.2699646055698395 0.017031241208314896 -0.7735778140752216 0.5425676709062136 -0.32741058024750597
-0.029475022107362747 0.2643975615501404 -0.020618367940187454 0.7198805775980504 0.6286619507745935 -0.294204190393985
-0.08314855396747589 0.1031421422958374 0.059223927557468414 -0.6541465085380698 -0.3341382106208033 0.6785602416665604
-0.0683121457695961 0.06291572004556656 0.1297394037246704 -0.10445636182351284 -0.7623456365162224 -0.638684584876816
-0.10873100161552429 0.15929818153381348 0.049247127026319504 -0.9464447513348262 -0.28457867583396046 0.15250347514515433
-0.01725262962281704 0.17382903397083282 -0.049250278621912 0.49274929743037565 -0.236601318547733 -0.8373875721213836
-0.019166894257068634 0.16896270215511322 0.077141173183918 0.6958343756139996 -0.026146539618997204 0.7177261874697254
-0.020874744281172752 0.0332203209400177 0.1355196237564087 -0.0943173319881177 -0.8258145971713436 -0.555998643870086
-0.030216017737984657 -0.2047843486070633 0.07764656096696854 0.23506909804874626 -0.9709628134128011 0.044426727451470215
0.08541980385780334 -0.4305046796798706 -0.028792554512619972 0.292387163855568 0.9551777354725228 -0.04631673639280579
0.006414660252630711 -0.13578663766384125 -0.05156726762652397 0.5206631558128655 -0.43232063357432576 -0.7362124339923101
0.13180704414844513 0.10032452642917633 -0.16759654879570007 -0.1255975088519217 -0.35786260426188854 0.925288939867483
-0.12666954100131989 -0.39298775792121887 0.009269576519727707 -0.7004341653888967 0.38421288224967903 0.6014752206611292
-0.02251538634300232 -0.20165754854679108 0.05311335250735283 0.4686808710899224 -0.8821975826284907 -0.04544960152563508
-0.12002869695425034 -0.40840864181518555 0.007634917739778757 -0.42618283608384916 -0.8543254824927737 -0.2974830418545171
-0.06748909503221512 0.14717482030391693 -0.03590095788240433 -0.616384170061675 -0.17121888379862835 -0.7686056522873949
0.06416316330432892 -0.15556968748569489 0.029364410787820816 0.2696269066838683 -0.14483972998394445 0.9520098653954521
-0.03799968212842941 0.1893056035041809 -0.06397834420204163 0.021262201903145983 -0.5008688953637882 -0.8652619652031913
-0.09977785497903824 0.13917236030101776 0.011689998209476471 -0.9225649617036403 -0.06264282510001859 -0.3807226916014453
0.01569444313645363 0.007622912526130676 -0.08443371206521988 0.08319056139519079 0.39448002054466064 -0.9151310528475347
-0.08388280123472214 0.07768518477678299 0.15087340772151947 0.035004469707430125 -0.013104782046169326 0.9993012317554822
-0.0533236563205719 0.08869688212871552 -0.03497668728232384 -0.49401926239168426 -0.168534116831153 -0.8529602686232927
0.03849410638213158 -0.420492023229599 -0.008190341293811798 0.4620923930542571 0.7101246395671365 -0.5312189911524573
-0.09902649372816086 0.12312936037778854 0.041527096182107925 -0.9495138568551285 -0.22239497629406949 0.22127790255526855
-0.015867197886109352 -0.034758832305669785 -0.08638198673725128 -0.4721669224757533 0.11672096006685433 -0.8737474548179512
-0.04192313179373741 -0.2076980173587799 0.07353681325912476 0.23511304829374827 -0.935277072064689 0.2645347859774291
-0.030883517116308212 0.39925000071525574 0.02042221836745739 -0.015577201024277976 0.9305419398052236 0.3658538629996693
-0.042062629014253616 0.18165284395217896 0.08733481913805008 0.06589040494607643 0.11577650650469498 0.9910874104122253
-0.07117324322462082 -0.2023387849330902 0.03437619283795357 -0.8504743040668667 -0.3555204818277252 -0.3876836921034478
0.08933977037668228 -0.06751246750354767 -0.030692508444190025 0.8589647241695921 0.4577274896686769 0.22948888390043626
-0.06324014812707901 0.200802281498909 -0.05511089414358139 -0.6963090081992959 -0.06776697509322847 -0.7145357948956977
-0.14163312315940857 0.11438826471567154 0.11395782977342606 -0.8050343063895032 -0.5059145289312068 -0.3097906631134751
-0.12993140518665314 -0.3814288377761841 -0.045684535056352615 -0.0187132521791617 0.15791755843928426 -0.9872749662224067
0.04565369710326195 -0.15015777945518494 0.040628399699926376 0.8294225231140319 -0.14660998162238773 0.5390396937516165
-0.09368357807397842 0.1872449517250061 -0.011288431473076344 -0.7873980882297531 -0.05853699313133301 -0.6136592467218859
-0.008798250928521156 0.25445491075515747 -0.06289773434400558 0.5128060813884261 0.8550156046245038 -0.07731907099572022
-0.10181257873773575 0.14207424223423004 0.01698966883122921 -0.9438102449893506 -0.10811929496743472 -0.31230184038664754
-0.05997583642601967 0.2209547609090805 0.08773250877857208 0.6949258245678646 0.22401732798303628 0.6832966669844178
-0.009318182244896889 0.17170047760009766 -0.17404130101203918 -0.7431204102222999 -0.6408136004850967 -0.19269142519678434
0.07280170917510986 -0.08537808805704117 0.007296289782971144 0.6315448599967424 0.3227732846578537 0.7049599254729841
0.08957795053720474 -0.12446059286594391 -0.0553525947034359 0.49013376327111197 -0.1861382606011768 -0.8515406285328176
0.0002260895853396505 0.3699805438518524 0.04217362776398659 0.45035223846413647 0.20735733409786186 0.8684387124640226
-0.061822663992643356 -0.2876375913619995 0.01454292144626379 0.9497431366738257 -0.2767035118031106 -0.14636646096968026
-0.0836966335773468 -0.15015718340873718 0.00909590907394886 -0.6475923935609593 0.0021124262961564537 0.7619840086623412
0.0032799073960632086 0.08713103085756302 -0.043632302433252335 0.23136852981068157 0.346559609017211 -0.909046225893426
-0.08485229313373566 -0.13077746331691742 -0.00898837111890316 -0.9619706218302967 0.2655727095104516 -0.06390351084807258
-0.06964799761772156 -0.10036341845989227 -0.021851500496268272 -0.8712657807613349 0.15734422166579676 -0.46490723287848096
-0.038864172995090485 -0.19539810717105865 -0.0066746799275279045 0.05487845554425982 -0.9698146988975938 -0.23758746793390934
-0.05890403687953949 0.06286459416151047 0.153328999876976 -0.15265268704433743 -0.28035455819583177 0.9476805784846304
-0.10569332540035248 0.15798276662826538 0.05609589442610741 -0.8646600643710424 -0.23019211206091508 0.44651378996263924
0.012943859212100506 -0.10908271372318268 0.06534557044506073 0.6255961942354473 0.1764014241386117 0.7599420631337589
0.04674385115504265 -0.21725346148014069 5.141010660736356e-06 -0.04879668759448273 -0.17070185615214503 0.9841136924085645
0.12414044886827469 0.09210424870252609 -0.1762555092573166 -0.5757617639967698 -0.6179161442389854 0.5354232249428049
-0.08716155588626862 0.10436294972896576 0.14460676908493042 0.6560674879551333 0.644455094803898 0.3927506613992394
-0.06388647854328156 0.16178804636001587 -0.039363835006952286 -0.6112769774945734 -0.20939815785925248 -0.7632122039578839
0.05734758824110031 -0.1524544060230255 0.030409954488277435 0.429450386515254 -0.2181773234709442 0.8763395580737834
-0.07753568887710571 -0.035302918404340744 0.05025472864508629 -0.8635867469262322 0.029015675205524002 0.5033646999201825
-0.06234655901789665 -0.006497002672404051 -0.037488508969545364 -0.7531443526638498 0.19915977790313433 -0.6269840244504837
-0.01939062960445881 -0.17516474425792694 -0.034838445484638214 -0.22753575514287339 -0.6456120774583503 -0.7289804699520254
0.0722028836607933 -0.2693479061126709 -0.03070187196135521 0.9562909775146236 -0.2850943544743536 -0.06502903483043285
0.06945496797561646 -0.1677679866552353 -0.04217540845274925 0.07293392661214826 -0.7625269750180436 -0.6428322135042437
-0.014470509253442287 -0.1924392580986023 0.005006389692425728 0.12877200614963022 -0.9825642028361822 0.13410949905617192
0.07621420919895172 -0.14699657261371613 0.026443030685186386 0.20593405480977464 0.15860252584275267 0.9656274663999072
-0.015320097096264362 0.040931206196546555 0.1653422862291336 -0.4199026232363045 -0.2803050415688395 0.8631980483471688
-0.07637212425470352 -0.15768206119537354 0.013236049562692642 -0.5301976887706517 -0.0078097474564287365 0.8478380851712939
0.006445994600653648 0.21784855425357819 -0.1039407029747963 0.9919155246916225 0.00020846540065073732 0.12689975735957934
0.011176671832799911 0.20475269854068756 -0.15564261376857758 0.60813475414314 0.7836838659333166 -0.12653742165491635
-0.06318049132823944 -0.17600853741168976 0.03131064400076866 -0.9619415742244602 0.24573492987239928 -0.11951046824096279
0.023569582030177116 0.06978330761194229 -0.04523211345076561 0.6054235097804177 0.5003510532602552 -0.6189597703457905
-2.5532728614052758e-05 0.14297251403331757 0.04444730654358864 0.8174893280315508 0.08278113791138338 0.5699635793282058
-0.12969784438610077 0.17407798767089844 0.09012866765260696 -0.8396320763796262 0.25938143919515233 -0.47722033204327013
-0.09390576183795929 0.16004709899425507 0.06992843747138977 -0.585742039067207 -0.613122717706087 0.5300818773567841
0.04729266092181206 -0.39644408226013184 -0.04165284335613251 0.6501695806751163 0.4740230972855096 -0.5937858364802884
0.013509542681276798 -0.04893834516406059 -0.09693431109189987 -0.001951652803729084 -0.057306021635840525 -0.9983547520473904
0.06305695325136185 -0.22076059877872467 -0.004803319461643696 0.3417678115445909 -0.19631535481318385 0.9190511653094157
0.09661952406167984 0.14760401844978333 -0.1687854677438736 0.4061829455839281 0.5072273031347628 0.7600893879481537
-0.11891255527734756 0.20215997099876404 0.09686409682035446 -0.9701190427787115 0.20928998341471294 0.12274667278743459
0.02273198403418064 0.10372414439916611 0.014885257929563522 0.9682482969487111 0.14847849720796766 0.20112029067894713
-0.08501557260751724 -0.019500887021422386 -0.01018344797194004 -0.8976672701130111 -0.03828735887728324 -0.4390074604355339
-0.01191582903265953 0.05058889463543892 0.06419725716114044 0.43023067119169256 0.02774867219190857 0.9022924031363292
0.036321673542261124 0.05672094225883484 0.0039005193393677473 0.9290260612435342 0.2590439567165016 0.2642097765393712
-0.03917312249541283 0.2464016079902649 -0.07609818130731583 -0.5735016405543935 0.5510837205118282 -0.606137444205735
0.04252800717949867 -0.3268064260482788 -0.04778570309281349 0.26183958686057623 -0.2315209276297135 -0.9369301419114233
-0.09508422762155533 0.22465163469314575 0.10754138976335526 -0.11151851417326562 0.29701214131280473 0.9483392899745163
-0.08550351113080978 -0.3087061643600464 0.03328975290060043 0.07748734967116483 -0.6188596719396339 0.7816702738928399
0.0889199823141098 -0.08268655091524124 -0.010298575274646282 0.7001394773850652 0.44788341312880975 0.556062191172045
-0.05457920953631401 0.10906298458576202 -0.03745048865675926 -0.4829900352967515 -0.10656030028329881 -0.8691176722444297
-0.03198257088661194 -0.08902251720428467 0.08894331753253937 0.03492719217703706 0.19492935221830482 0.9801952044824441
-0.003933820873498917 0.2083040177822113 -0.0673852488398552 0.6408258542602777 -0.7575655877458289 -0.12424413376454539
-0.03751565143465996 0.04532955586910248 0.0702848806977272 -0.007074895469972106 -0.02075940383756254 0.9997594675752753
0.0788000226020813 -0.20877929031848907 -0.022836564108729362 0.9510911084421989 0.03539606674704132 -0.3068759063547163
0.0026002887170761824 -0.13815584778785706 0.08302424848079681 0.7116738520878656 0.20824168623012057 0.6709364562836445
-0.031164979562163353 -0.20506788790225983 0.0643220990896225 0.3657600982059874 -0.9298006621325356 0.04111300595000132
0.012876996770501137 0.37460657954216003 -0.006637755781412125 0.8113111887347051 0.26182946898771037 -0.5227040120407469
0.0029762431513518095 -0.37786370515823364 -0.03593717887997627 -0.8790995702273382 0.2103936104888475 0.42768969392724016
0.09187696874141693 -0.4246549606323242 -0.02003386616706848 0.700036122351723 0.7119969034078482 -0.054861980828247295
-0.051185108721256256 -0.252751886844635 0.03552133962512016 0.9144898530971397 -0.37060216657955464 0.16236484443657093
0.0013806342612951994 -0.15021909773349762 0.08841099590063095 0.730996338053965 0.1762172919322149 0.6592357846596087
-0.045090511441230774 0.05756516009569168 0.0706043541431427 -0.1329439180746049 -0.04156244935106479 0.9902517242857561
-0.011512733064591885 0.03157766908407211 0.15642176568508148 -0.18545835048477843 -0.9818137335984152 0.04058315848976591
0.08049694448709488 -0.05818581581115723 -0.0243559330701828 0.8235325111188357 0.4626522873140296 0.32824847931620543
-0.03820575028657913 0.23053105175495148 -0.08592946082353592 -0.8195233829413429 0.1501131077064919 -0.5530347906841634
-0.10636285692453384 0.11024030297994614 0.12037243694067001 0.5913684289271983 0.415137702329068 -0.6913349907050267
0.011547169648110867 0.20598475635051727 -0.148593470454216 0.7362430171444058 0.6726343386957833 -0.0742244307043747
0.021347371861338615 0.11013208329677582 -0.008135229349136353 0.9254196482491844 0.2813845999985617 -0.2538132808148646
0.05241257697343826 0.1646973341703415 -0.1935991495847702 0.4602544002915256 0.31295070013651777 -0.8307994621425506
-0.03491346538066864 -0.14909715950489044 0.10329935699701309 -0.2900184104680484 0.16791213430398982 0.9421755870022666
0.07101987302303314 -0.03814316913485527 -0.0642566904425621 0.8186965701619032 0.3369320597733025 -0.46498678809408733
-0.07916530221700668 -0.17352749407291412 0.059277161955833435 -0.9547717654944003 0.29611842110914066 0.02692130187296774
-0.04130006581544876 0.12992911040782928 0.07661508768796921 0.19335668860855634 -0.23164232518118139 0.9533913279210116
-0.03647598996758461 0.15270574390888214 -0.0496082678437233 -0.11462389288329713 -0.1702126889745812 -0.9787180409557805
-0.04813743755221367 -0.11577150970697403 0.0902659147977829 -0.4125694874075608 0.21827622326159257 0.8843878721573006
-0.06628023833036423 0.07562240213155746 0.1501319259405136 0.252718692838766 0.405690059752024 0.878378527576958
0.07145457714796066 -0.41996192932128906 -0.044591713696718216 0.5765206011328556 0.37484854705055337 -0.726025180860485
-0.022125646471977234 -0.193118616938591 0.015177746303379536 0.13349985419684118 -0.9904207951259315 -0.03527658588270248
0.01731894537806511 0.3120245635509491 0.002905661938712001 0.8603169151075719 -0.3441686546944858 -0.37603556042690806
0.017991427332162857 0.007349635008722544 0.03864051401615143 0.7062918544568098 -0.031047910387800914 0.7072395941889226
0.04174812510609627 -0.42574310302734375 -0.022733427584171295 0.3069272180243323 0.9502105925339951 -0.05380996814752805
-0.02915811911225319 -0.12378022819757462 -0.07730968296527863 -0.16913218710801972 -0.20575614329600103 -0.9638769178582987
0.002380603924393654 0.22283636033535004 -0.015406819060444832 0.8407521902968373 0.5157465407224601 0.16474604773373636
0.12050612270832062 -0.15258240699768066 -0.009528597816824913 0.9596559831985993 -0.13882751869417984 0.24451444530813882
-0.03207447752356529 0.05057620257139206 -0.046947747468948364 -0.6069370629818138 0.21264449560634868 -0.7657739353538559
-0.06440942734479904 0.2782912254333496 -0.00972510501742363 -0.7430726130525017 0.21723311421426064 -0.6329714573502515
-0.07404623925685883 0.23427478969097137 -0.03676524758338928 -0.8394184323654105 0.22500578456494913 -0.49472122687176917
-0.03127044066786766 0.017594750970602036 -0.06515537947416306 -0.6233844430456004 0.28426420693968374 -0.7284131360853395
0.0095004728063941 0.13980048894882202 -0.019567901268601418 0.8423038496528495 0.003107361526715994 -0.5389940344422489
0.004016421735286713 -0.12291832268238068 -0.06206042319536209 0.4554272874344756 -0.49597817849332404 -0.7393183565410236
-0.13871736824512482 0.14100486040115356 0.13407686352729797 -0.416220155582959 0.5087344360259198 0.753624611917556
-0.07562918215990067 -0.03048800304532051 0.0530356839299202 -0.8174908702645647 0.09592144822061095 0.5678976605034972
-0.07010583579540253 0.31629085540771484 0.019020183011889458 -0.7206280099071898 -0.25107971404224344 0.6462617492422622
-0.018554165959358215 0.1815033257007599 -0.1320999413728714 -0.44217045725086646 -0.8913936091807085 0.09951241252401719
0.03519553318619728 -0.26740822196006775 -0.002218924229964614 -0.13843976340301706 -0.13524595584024476 0.9810927394175208
-0.13194648921489716 0.13200388848781586 0.10079573094844818 -0.0801487168634919 -0.52102081387763 -0.8497726135216573
-0.033939115703105927 0.3091917335987091 0.03757784143090248 -0.10032996712458675 -0.2530799706193121 0.9622288845010358
-0.07131199538707733 0.3690882921218872 -0.026582449674606323 -0.5922715909650422 0.21714191630613774 -0.775927671061315
-0.012731066904962063 0.3968040347099304 -0.006064073648303747 0.35883181629903665 0.8403188424831367 -0.4063298790137587
-0.13100272417068481 -0.39327749609947205 0.001060742768459022 -0.8521184423215264 0.37700182317225006 0.3629928175327096
0.008818470872938633 0.31569209694862366 0.03578781709074974 0.6035466611908049 -0.2408495388724882 0.7600808689806248
-0.06322308629751205 -0.21629081666469574 0.06255573779344559 -0.3657065283005335 -0.05419642240891251 0.9291509473473327
0.04944029450416565 -0.030509399250149727 -0.08201105892658234 0.586955635606952 0.17243184055578883 -0.791043830765263
-0.09101929515600204 -0.3389062285423279 0.0034543857909739017 0.7866106096902201 -0.5966962930129124 0.15873651951403275
-0.07504468411207199 0.10144492238759995 0.06606756150722504 -0.4923020411975238 -0.3400449834311453 0.8012540854660671
-0.052736371755599976 0.37782013416290283 0.03853080794215202 -0.4647056445565708 0.42435742893287043 0.7771547055939029
0.028223315253853798 -0.003643281990662217 0.03198162466287613 0.7474730748126353 0.06719455611407033 0.6608849325402855
0.020281430333852768 -0.11344972997903824 0.06003386899828911 0.5774859900466826 0.14617670458312138 0.8032075088898396
-0.00543025741353631 -0.13020247220993042 -0.06674177199602127 0.5016152375709956 -0.4211801665386254 -0.7556384193191142
-0.013286296278238297 0.17586487531661987 -0.17058172821998596 -0.7818745853715782 -0.6035865686462438 -0.1560621251293089
0.03394682705402374 0.06715971976518631 -0.003362536896020174 0.9423858850811101 0.32248061825709945 0.08896681655770095
-0.08482842892408371 0.13091251254081726 0.07152120023965836 -0.5538339797524043 -0.25624596017174595 0.7922158359735517
-0.0866164118051529 0.3720493018627167 -0.0025126186665147543 -0.964121287647401 0.2530742220974517 0.0801472445869915
0.01802544668316841 0.17197637259960175 0.0106480922549963 0.9209085492410514 -0.08878346437739072 0.37953252876122623
-0.015118706971406937 0.25346213579177856 -0.037496428936719894 0.6477787499352317 0.7411166828036567 0.17643342541155
-0.09385181963443756 0.2614608108997345 0.02503788284957409 -0.7165338995082359 0.5657124783626032 -0.40810361757813757
0.05419449508190155 -0.021114274859428406 -0.07570486515760422 0.6436434372457608 0.29701379085784035 -0.7053410052809332
-0.08435235172510147 -0.14783361554145813 -0.03603089600801468 -0.8752267187116642 0.2882717587057801 -0.38842963839785677
-0.060998350381851196 -0.10356009006500244 -0.03942301496863365 -0.8269978867005209 0.24920843975217252 -0.5039540147167798
-0.09360907226800919 -0.2360452264547348 0.027769535779953003 -0.7714366426608787 0.5797390245617766 -0.2622749888195052
0.09419526159763336 -0.1656346321105957 -0.03224198520183563 0.38305134205626556 -0.5221460461838349 -0.7619942098228059
-0.04327794909477234 0.2993377149105072 0.03656746819615364 -0.09179577084997716 -0.07154433201300182 0.9932043822954427
-0.05306364595890045 0.14297084510326385 -0.04315400496125221 -0.379667502314401 -0.16821350605190874 -0.9097014917367504
-0.007859628647565842 -0.15443699061870575 -0.05249819904565811 0.31645086886990414 -0.4972772079061812 -0.8078206645589822
0.0347723588347435 0.0035261588636785746 -0.0802706852555275 0.4317879183123467 0.4155528585763537 -0.8005466977812793
-0.09018275141716003 -0.16596035659313202 -0.034189723432064056 -0.8336986500826168 -0.15742095042058546 -0.5293063434525437
-0.025259193032979965 0.19853368401527405 -0.07515586912631989 0.41151380718029246 -0.911179441563434 -0.020209200185308862
0.004942005034536123 0.02750532701611519 -0.07575935125350952 -0.08513057851444575 0.4062754960725261 -0.9097763493808897
-0.03221653029322624 0.0427800752222538 0.16134802997112274 -0.3715103089514031 -0.20050065229504904 0.9065205892709183
-0.08501402288675308 0.14213421940803528 -0.011908447369933128 -0.8144868863866823 -0.15390174277081997 -0.5593973234439292
0.06743189692497253 -0.1475941389799118 0.028403272852301598 0.2580387949525054 0.13468774944185907 0.9567001570239998
0.00388890178874135 0.04321335628628731 0.05519291013479233 0.5800310078075661 0.0639588375974772 0.8120796125226386
-0.050522953271865845 -0.18069083988666534 0.09299976378679276 -0.7920724232385764 -0.05676471228250639 0.6077820693179865
-0.05433729663491249 -0.09779081493616104 -0.05005329102277756 -0.8961407381863361 0.09974555858219089 -0.4324148481562301
0.08628172427415848 -0.17016449570655823 0.005220742896199226 0.1445615259157825 -0.9567098726506308 0.2526028202489324
-0.09043020755052567 -0.4144792854785919 0.019784530624747276 0.7224957987322393 -0.5825201730276401 -0.3723843026096988
0.010579539462924004 0.19325509667396545 0.0189190860837698 0.7836816443459933 0.39356174206468725 0.48057490102810063
0.04140452295541763 -0.14062568545341492 -0.043912410736083984 -0.4874621223768274 -0.5124157179185732 -0.7069729919012975
-0.0025265051517635584 0.37705159187316895 -0.01788375899195671 0.46367863853354385 0.39777715016352083 -0.7916915175593755
-0.08345124125480652 0.036897893995046616 0.03638026490807533 -0.9204363684159086 -0.02804285172439079 0.3898852269123541
-0.045524999499320984 -0.2364974468946457 0.027546312659978867 0.9212183306722531 -0.2667125729961971 -0.2832334560732113
0.030254632234573364 0.15035787224769592 -0.1756994128227234 -0.4580813498856233 -0.8783207760688927 -0.13679945618570022
0.015634531155228615 0.3109991252422333 0.0012076636776328087 0.884746367463162 -0.3005585803919018 -0.3562139876725005
-0.08258258551359177 -0.18702012300491333 -0.021783718839287758 -0.3222444296872304 -0.8367963349312468 -0.4426402844084395
-0.06490302085876465 0.22206434607505798 0.09139537066221237 0.677721770092749 0.18052954062920895 0.7128129399095936
-0.08347485214471817 0.36898329854011536 0.010584472678601742 -0.9212631909181496 0.2230277614395432 0.318642041618138
-0.10662972927093506 -0.29286953806877136 0.0318414643406868 -0.7678732741790704 -0.19392326613474606 0.6105443486374653
-0.035874202847480774 -0.1950131058692932 -0.0030907276086509228 0.07477023701231017 -0.9929894436961875 -0.09154985726400264
-0.07137658447027206 -0.11942949891090393 0.042694851756095886 -0.9792487183345318 -0.08488180943579875 -0.18402995969972347
0.026309596374630928 -0.40929269790649414 -0.012653072364628315 -0.7066639543858348 -0.3912151584312399 0.5895564056011898
-0.008527012541890144 -0.13375599682331085 0.09260083734989166 0.5560603069739567 0.23060853420901914 0.7985090099416516
-0.08231154829263687 0.36401277780532837 0.009047145023941994 -0.9310360723503787 0.17017689909181474 0.32281830028341785
0.02834460325539112 -0.29599809646606445 -0.009769614785909653 -0.40895985563402 -0.2374218517269007 0.8811258144001747
-0.06483305990695953 0.06303922086954117 0.12984047830104828 0.04153230233753416 -0.6965485898241521 -0.7163065893013472
-0.059751152992248535 0.05605359002947807 0.13431324064731598 -0.3155359428438304 -0.8625412745093203 -0.39554976746484444
-0.09265772998332977 -0.17399004101753235 -0.02559709921479225 -0.855527771421237 -0.23100456525217739 -0.4633671580503566
-0.07060129940509796 0.07212760299444199 0.12616665661334991 0.21048269184394022 -0.26398213878691906 -0.9412812899636392
-0.06091322377324104 -0.010762778110802174 0.06355446577072144 -0.42214478217893436 0.06130925354860713 0.9044528502406374
-0.04322254657745361 0.01741059310734272 -0.05335811898112297 -0.7137818043115861 0.29782470817657847 -0.6338895637516306
0.031136875972151756 -0.3370186388492584 -0.04824850708246231 -0.14490280144184203 -0.0024817583912669465 -0.9894427820796883
-0.01999824494123459 0.18223242461681366 -0.05328363925218582 0.5006846764281125 -0.33960096532915285 -0.7962324027176889
-0.09423647820949554 0.2629029452800751 0.028523527085781097 -0.7174337181853793 0.6238955915381094 -0.3099082942904475
-0.10135304182767868 -0.2801573872566223 -0.006267096847295761 -0.5832489348622064 0.3681450710697921 -0.7240786467153408
0.05836371332406998 -0.22483466565608978 -0.0036876413505524397 0.25921445570683677 -0.16925757159171576 0.9508731463299842
-0.07894673943519592 -0.13717609643936157 -0.03725925832986832 -0.8421962541324254 0.4014361805642945 -0.3599367478589295
-0.06751594692468643 0.23928426206111908 -0.0445941761136055 -0.7972833165196697 0.2994876025906697 -0.5240672562695454
0.030597945675253868 0.07794234901666641 -0.022013729438185692 0.8853482605218992 0.4239178537257403 -0.19092435906245508
-0.09898510575294495 0.15108686685562134 0.00708857411518693 -0.9140054603450313 -0.1693612205015483 -0.3686608135531812
0.029167668893933296 0.08294940739870071 0.0003699696680996567 0.956187770166672 0.28554633959051184 0.06456187830405681
0.02695429138839245 -0.2515605688095093 -0.04930073395371437 -0.5985432408561504 0.17471620316032557 -0.7818057541222476
0.09600021690130234 -0.16942709684371948 0.0072891381569206715 0.12278151736811996 -0.9799968910341095 0.1566230907505713
0.09604053944349289 0.13863752782344818 -0.190773606300354 0.2008461301607331 0.2275729887854131 -0.952822841232688
0.10559803992509842 -0.10102565586566925 -0.02782806195318699 0.9131969834859622 0.4059235096259708 0.03601907390638757
0.11440952122211456 0.10667881369590759 -0.18631511926651 -0.7047059997202805 -0.44334864636167637 -0.5539236695858999
-0.11117786169052124 -0.3722613453865051 -0.03799578174948692 0.38812573452391447 0.1721680623523036 -0.905382003634999
-0.0071301511488854885 0.38628488779067993 0.037793952971696854 0.23668342388984506 0.6431466367559896 0.7282467716957206
0.11403840035200119 -0.12875595688819885 -0.002858437830582261 0.8510445719271261 0.3420348973054132 0.3984159454874393
-0.052169568836688995 -0.17065958678722382 0.09071566164493561 -0.8121153822674997 -0.02304941598394732 0.5830414481898453
0.06730996072292328 -0.28682729601860046 -0.03450789302587509 0.9199246013728393 -0.21801672744236772 -0.3258948209842298
-0.04811253771185875 0.023821404203772545 -0.04336842522025108 -0.7282578521753413 0.28301193949260117 -0.624135195970869
-0.07735515385866165 -0.11977306008338928 0.0570707768201828 -0.9865283564092518 0.03958872124048241 0.15872786507416983
-0.11180084198713303 0.23463615775108337 0.06736530363559723 -0.912044787657467 0.4050328491313291 0.06420822713176316
0.007026641629636288 0.11384814232587814 -0.030238017439842224 0.6757646903582876 0.20177711240414453 -0.7089626789717587
-0.10429999232292175 0.24308137595653534 0.08195905387401581 -0.801760675910645 0.5467555781640733 0.24132583017525389
-0.0394538976252079 0.216884046792984 0.07029303163290024 0.6245775845849162 0.421249041945575 0.6576108921649695
-0.08255673199892044 -0.09068059176206589 0.005501161329448223 -0.994884679568623 -0.03601903186163614 -0.09437745336354941
-0.028640570119023323 -0.0876976028084755 0.08814084529876709 0.2151748161501202 0.2722270175248884 0.9378657949964196
-0.05781454220414162 -0.18113771080970764 0.08093758672475815 -0.7997859417580853 -0.01767243338021029 0.6000251098617078
-0.01458677090704441 0.3894771337509155 -0.016708780080080032 0.30842589580621943 0.7015725096472474 -0.6423935557766703
-0.0008388750720769167 0.05088316649198532 0.056838855147361755 0.5749022072674969 0.07314557516372781 0.8149461190243975
0.05235537886619568 -0.31828850507736206 -0.04407113417983055 0.636955851492549 -0.24780108619485922 -0.7299875786135336
-0.14486366510391235 0.1464071124792099 0.10587684065103531 -0.8591580505438465 0.16477855426296623 -0.4844537875181739
-0.10029956698417664 0.24898773431777954 0.08086103200912476 -0.5906397001162795 0.6594538318913966 0.4650434261983554
-0.040022511035203934 -0.15959635376930237 -0.060515742748975754 0.03413294527913206 -0.6925186930940492 -0.7205919800843484
0.14430823922157288 0.11671383678913116 -0.19079051911830902 0.7997893141054876 0.5961353453115077 -0.07042515965905445
-0.017611954361200333 0.25087204575538635 -0.011685661040246487 0.836386505466285 0.5481340681281495 -0.002580083560918961
0.14097556471824646 0.0779866948723793 -0.17889367043972015 -0.05445082052228033 -0.9401842668930538 0.33628656296560766
-0.07723616063594818 -0.08483242243528366 0.04212576150894165 -0.9918453806304075 -0.085540586741024 0.09447512340358977
-0.028813958168029785 0.2618480622768402 0.024264981970191002 0.8560255628167628 0.07735052452834286 0.511113619618412
-0.04224158823490143 -0.18451251089572906 -0.02148737944662571 -0.009593296151722568 -0.8623912216752679 -0.5061515083909011
-0.07214288413524628 0.3307770788669586 0.020531943067908287 -0.8543325511061136 -0.2479484778751402 0.4567684801296179
-0.03894554078578949 0.3030874729156494 -0.019149165600538254 -0.08796197522100516 -0.12823109019699744 -0.9878357547801704
-0.03958003968000412 0.13820666074752808 -0.047509241849184036 -0.19239280432956474 -0.14283796518339062 -0.9708667903190811
-0.06862996518611908 -0.1924106627702713 0.004723511636257172 -0.12249928906783097 -0.992053703993766 0.028694469329918867
-0.06784215569496155 0.34095829725265503 0.031333863735198975 -0.6981538395219309 -0.2641852769284097 0.6654226895853835
-0.07495524734258652 0.24643561244010925 -0.025684654712677002 -0.8205036136013963 0.3643491010389134 -0.44048104685580536
-0.002582165878266096 0.28493714332580566 0.011854113079607487 0.27527100553573064 -0.9482720526445247 -0.158132816596327
0.021062031388282776 -0.11063366383314133 -0.06395464390516281 -0.16480369998662214 -0.6772966273303318 -0.7170139601693102
0.058576762676239014 -0.28011611104011536 -0.04763595387339592 0.600668414790855 -0.17945505748731697 -0.7790977716659605
-0.06276470422744751 0.376359224319458 0.03157530352473259 -0.6365783617904136 0.4044844717087227 0.6566279779652624
-0.014629794284701347 0.12169884145259857 -0.04244651645421982 0.2948505432877263 0.04023980104416797 -0.9546957188208495
0.06621754169464111 -0.053614482283592224 -0.07463720440864563 0.6165565305932614 0.24757697477060772 -0.7473711836472119
-0.05994725972414017 0.31138351559638977 0.027891946956515312 -0.5941270732707781 -0.08848297144807231 0.799489702604367
0.059571146965026855 -0.18373997509479523 0.004659716039896011 0.32072019072175656 -0.4942536412962548 0.807992510688554
-0.08480048179626465 0.2512050271034241 0.01191129069775343 -0.6523431774431336 0.45165124882903246 -0.6086538657353388
-0.07402455061674118 -0.17808671295642853 -0.041430868208408356 -0.33103760770847357 -0.5729982190541696 -0.7497247116398129
0.05068403482437134 -0.2938081920146942 -0.04988336190581322 0.4622937246452902 -0.1746641892510074 -0.8693543196803436
0.009150338359177113 0.08622689545154572 -0.04237847030162811 0.29064449884617877 0.4709862541643485 -0.8328851803692326
0.059167563915252686 -0.27899476885795593 -0.013040468096733093 0.6671963187072155 -0.22801276585518684 0.7091256947189318
-0.013678506016731262 0.07894619554281235 -0.0482591912150383 -0.018815339298248798 0.26502883827566354 -0.9640568955665137
-0.06651201099157333 0.2833135426044464 -0.0033450459595769644 -0.8415067781516788 0.204951792128444 -0.49986108593100154
-0.09570011496543884 0.10632716119289398 0.14794693887233734 0.2605839703196414 0.5081375980968972 0.820909359072467
0.13006062805652618 0.11091862618923187 -0.19387049973011017 -0.13785845217878992 -0.02468836431900219 -0.9901441974935371
-0.08186870068311691 -0.32283496856689453 0.006278197281062603 0.8821284325416365 -0.468609886320948 -0.047478447151350085
-0.042727142572402954 0.03213416039943695 0.06966280192136765 -0.11018678303960061 0.0026257403052330486 0.9939074294577105
0.09062671661376953 -0.13787908852100372 0.02067476138472557 0.3770072593998026 0.27730051182394 0.8837250434960134
-0.01952975243330002 0.2720288336277008 0.006808942183852196 0.8946946011821904 -0.4457947153217789 -0.028082777758184036
-0.04139946773648262 0.21329212188720703 -0.07858235388994217 -0.662685937926133 -0.375734128974466 -0.6478203547271116
-0.029296983033418655 -0.12300537526607513 0.0964733213186264 -0.05975014223173007 0.23637604833403067 0.9698228107635312
-0.02299686148762703 0.3018241226673126 -0.013815353624522686 0.20527016825776462 -0.42599202012242326 -0.8811327691190731
0.013866943307220936 0.17726564407348633 -0.02490612119436264 0.7926899446419495 -0.09241752914844462 -0.6025791665579217
-0.08520317822694778 -0.0658746138215065 0.026723800227046013 -0.9780264907857539 -0.0962740862041854 0.1849202088654805
0.023368852213025093 0.10287854820489883 -0.005802585743367672 0.9590973531097697 0.2518170219146017 -0.1293075973479322
-0.10821345448493958 0.13651207089424133 0.11613088101148605 0.9904948680484935 -0.13753201570328102 0.0022047735008113335
0.05322825908660889 -0.1814517229795456 -0.0349847711622715 0.1088964634334297 -0.17061586492980707 -0.9793016832855673
-0.0668969601392746 0.10319074243307114 0.07006765156984329 -0.3564940186986232 -0.34274449563098475 0.8691594936182699
-0.0034757826942950487 0.06501083821058273 0.058637380599975586 0.5560859098872922 0.06798545725576711 0.8283395671018902
-0.015338736586272717 0.1708148568868637 -0.04776313528418541 0.4972398297619586 -0.21010389160597817 -0.8417891104251243
-0.05258742719888687 -0.21229565143585205 0.021137790754437447 0.040946516672878484 -0.20969526351335477 -0.9769090434797
-0.020493390038609505 -0.145149827003479 0.10214565694332123 0.26517162862866966 0.25676010524019305 0.929385956278372
-0.11294754594564438 -0.34317395091056824 -0.03132196143269539 -0.320295215070504 0.6375726234572683 -0.7006512149570256
-0.10219240933656693 -0.3755573332309723 -0.028752237558364868 0.8755911358582863 -0.03504913350784296 -0.48177974329224926
-0.1362246572971344 0.11324770748615265 0.11334968358278275 -0.34552227920383133 -0.4785426026511391 -0.8072244619817116
0.024302836507558823 -0.023444732651114464 -0.09393211454153061 0.14908506820018774 0.1754163217628192 -0.9731406663473419
-0.06791513413190842 0.3290334939956665 0.025855619460344315 -0.7272931631590842 -0.23623610347725907 0.644388980535775
0.03957034647464752 -0.2491135597229004 -0.05486314371228218 -0.12175606460897928 0.18566542280862616 -0.9750404153183745
-0.07570606470108032 -0.2530302107334137 0.0027207292150706053 0.09041524220265791 0.48597621296741694 -0.8692825802966965
-0.13480086624622345 0.09982898086309433 0.13642948865890503 -0.5440664760082128 -0.7674425217813733 0.33915136067226864
0.06940314173698425 -0.029414307326078415 -0.03165417164564133 0.8786453171307853 0.38626612872320853 0.28067932678650814
-0.04208402708172798 0.3771407902240753 -0.031270649284124374 -0.07300614467971897 0.29579718453909193 -0.9524568906033231
0.03841974958777428 -0.14456869661808014 0.052633196115493774 0.6060842523040858 -0.07030343189463217 0.7922873888765579
-0.0676051527261734 -0.1340804100036621 -0.0511808805167675 -0.5570530951813513 0.3010187261318393 -0.7740023098588539
-0.031000295653939247 0.23158343136310577 0.04592080041766167 0.7698031874404414 0.4223633617749042 0.47855223668554514
0.04402069374918938 0.14823828637599945 -0.19194093346595764 -0.3748285857078701 -0.7471579306730392 -0.5488702560429197
0.008395069278776646 0.028759906068444252 -0.07502628117799759 0.0072670751145923135 0.43742277583867667 -0.8992266148179032
-1.4705014109495096e-05 0.07495992630720139 -0.05017941817641258 0.07735634308573511 0.4130785570563198 -0.9074040455522947
-0.04321499168872833 0.05431230738759041 0.07071629911661148 -0.05112693201515038 -0.007682197656806991 0.9986626160330023
0.0023513087071478367 0.17929401993751526 0.038153842091560364 0.8510292831610619 0.16504931975167217 0.4985056481644712
0.03773616626858711 -0.09687402099370956 0.04454471170902252 0.6874628301866538 0.20757022898597635 0.6959234563876013
0.03287697955965996 -0.4210386574268341 -0.019839094951748848 0.5350739389853789 0.8347642821082463 -0.1298632863244081
0.020166777074337006 0.07613753527402878 -0.04306366294622421 0.5350114428677539 0.5516310114706173 -0.6398952907972273
-0.06250526756048203 0.05715290457010269 -0.021976951509714127 -0.7229540864833278 -0.048183267149499415 -0.6892138721789173
0.08491974323987961 -0.43033015727996826 -0.00043596274917945266 0.4612035120937896 0.73302408089298 0.49996701617542305
0.035194382071495056 -0.2608667016029358 -0.0017721623880788684 -0.2524600431619719 -0.0627666050709075 0.9655694070829544
-0.07146955281496048 0.09375333786010742 -0.022693239152431488 -0.7054408512542137 -0.1950212559883503 -0.6814102399395365
-0.09207716584205627 -0.1618642956018448 0.0004714184906333685 -0.8812429400945234 0.09490381718693432 0.4630379531063402
0.05413728579878807 -0.03164200112223625 -0.0012065829942002892 0.8480491313944823 0.23797700665659488 0.47347609764784443
-0.022929999977350235 -0.01972450688481331 0.06986570358276367 0.48539675278855243 0.14059097855185576 0.8629160846410041
-0.07344557344913483 -0.2054603546857834 0.044694602489471436 -0.8905483539818927 -0.3988456377712903 -0.21873679720374964
0.01744607649743557 -0.05829213932156563 0.04599751532077789 0.6220527396357536 0.22344824562694449 0.750414066124759
-0.10442467033863068 0.14452636241912842 0.04154423624277115 -0.9633489718432465 -0.263759568340378 0.048884031722612784
-0.11721590906381607 0.20157355070114136 0.08620299398899078 -0.9747036562535579 0.16579867734546117 -0.14987855442471334
-0.019197653979063034 0.12031041830778122 -0.043623290956020355 0.21487534319159876 0.02800126232391153 -0.9762399890378186
0.015620889142155647 0.1077788770198822 -0.021046236157417297 0.8197163463968316 0.34180670717407396 -0.45960122539071474
0.04570157453417778 -0.3399483263492584 -0.018571097403764725 0.520812320782619 -0.11651463028734657 0.845682486190902
0.08796805143356323 -0.10170717537403107 -0.058816682547330856 0.6094790736641271 0.0022223317253063373 -0.7927990413763253
-0.09561128169298172 -0.39493557810783386 0.011624999344348907 0.7993593082478591 0.6004813539623614 -0.02113858701601672
0.06665799766778946 -0.2080797702074051 -0.0015244281385093927 0.33898443024455477 -0.15727802236773836 0.927552251752896
-0.009462849237024784 0.19270601868629456 0.052060581743717194 0.7793651672470209 0.46102766731492356 0.42431524371884566
-0.0019774222746491432 -0.15868470072746277 -0.048568807542324066 0.20938023729740207 -0.3120986953241126 -0.9266899808491891
-0.06388946622610092 0.34214651584625244 0.0349629670381546 -0.6283032447480116 -0.1559534916211888 0.7621768437116678
0.006071705836802721 -0.3794296383857727 -0.03199426829814911 -0.7792213488465795 0.23034068599573634 0.5828870026658091
-0.09184803068637848 0.13004927337169647 0.0002208731893915683 -0.8637980089044879 -0.03720819169508987 -0.5024624864439373
-0.061736587435007095 -0.22561319172382355 0.06365514546632767 -0.1949389491830526 -0.19833914359371901 0.9605521277941752
-0.06787225604057312 0.31444865465164185 0.02257169596850872 -0.6952175626169997 -0.2606938782514428 0.6698591213614248
0.13945940136909485 0.07878006994724274 -0.18965226411819458 -0.4306403531829308 -0.8864786415010484 -0.16942403717576895
0.06875114142894745 -0.16307030618190765 -0.05282709375023842 0.0028647230731930788 -0.7143691298789044 -0.6997632025462406
-0.03944743424654007 -0.15719278156757355 -0.0629815012216568 -0.07132599365237158 -0.6778285887914841 -0.7317520118499484
-0.13254967331886292 -0.40537944436073303 0.009707625024020672 -0.8574144112628886 -0.5109002856401367 -0.06181767944157163
0.04304378852248192 -0.33889830112457275 -0.017168089747428894 0.37246095581677713 -0.15466305073960132 0.9150694930593919
-0.07509270310401917 -0.07459890842437744 -0.01075422577559948 -0.8608127306415089 -0.05283110852157067 -0.50617222043282
0.031807877123355865 -0.2259264439344406 -0.04114266857504845 -0.7020440575954285 0.39284695555261445 -0.5939742508796059
-0.04674999788403511 -0.11683963984251022 -0.0703568309545517 -0.7269208397332964 0.09901339065386035 -0.679545760955556
-0.12389456480741501 -0.3499598503112793 -0.029101889580488205 -0.41696603575037766 0.6342008502767423 -0.6510980007179196
-0.0669437125325203 0.09865665435791016 0.06864773482084274 -0.38376469333847285 -0.2834383376606548 0.8788557156274247
0.030359823256731033 -0.36017662286758423 -0.016424857079982758 -0.13030193238061363 -0.1637185526422027 0.9778638156403071
