ply
format ascii 1.0
comment VCGLIB generated
element vertex 393
property float x
property float y
property float z
property float nx
property float ny
property float nz
element face 0
property list uchar int vertex_indices
end_header
-0.008005415089428425 0.19354040920734406 -0.18187764286994934 -0.03858114873560834 0.7459742425664948 -0.6648563186054451
-0.14164714515209198 0.177811399102211 0.09787435084581375 -0.8349814092081468 0.24427062653358617 -0.4930901614204716
-0.12270891666412354 -0.38142338395118713 0.006659332197159529 -0.012732458190761903 0.6345859942012819 0.7727473717017683
-0.06627178937196732 -0.05498431622982025 -0.037126362323760986 -0.8537679666707957 -0.24833891930276614 -0.4576112326487947
-0.07011230289936066 -0.28817030787467957 0.039108533412218094 0.7003110660548084 -0.47724300752602616 0.5308516954184956
-0.1141841784119606 -0.3694193661212921 -0.028791576623916626 0.437638907581643 0.08927865661711379 -0.8947074985957085
0.01445863302797079 -0.3620867431163788 -0.04743456840515137 -0.43804228676484974 0.262405607141553 -0.859803612661923
-0.04043028876185417 0.2885955274105072 -0.016865484416484833 0.0846697741780582 0.07886974096633159 -0.9932827358313142
-0.05665557458996773 0.3964817225933075 0.014713008888065815 -0.3805609024039521 0.901586643806373 0.20570591452714762
0.09051883965730667 -0.4238853454589844 -0.021250417456030846 0.5519963811072756 0.8097143143371283 -0.1991550260526346
-0.06296491622924805 -0.06762970983982086 -0.03569190576672554 -0.8533065829951257 -0.2529182804025229 -0.4559607646008739
0.04215344414114952 -0.3087424635887146 -0.013468815945088863 0.36530509371863223 -0.19353947090290338 0.9105463534086805
-0.044789835810661316 -0.20833532512187958 0.07180625945329666 0.2248346905636272 -0.7148716423498295 0.6621237776150434
-0.07896581292152405 0.3727949857711792 0.01985996775329113 -0.7489445452766048 0.37964967996760246 0.5430913262066672
0.0438130721449852 0.0038184211589396 -0.01765347644686699 0.9293997589080049 0.2721314007545251 0.24932025361996302
-0.0015326531138271093 0.36287179589271545 -0.015275130979716778 0.5809593545849745 0.09682777673190862 -0.8081525907731568
-0.05025358125567436 -0.06895344704389572 0.08289962261915207 -0.40381127173722997 0.13581371098513353 0.9047049755176587
0.010090655647218227 0.18545719981193542 -0.18680498003959656 0.31752903952882133 0.6492791916478386 -0.6910946681526589
0.00072278588777408 -0.04040805622935295 -0.09599074721336365 -0.10751446875096946 0.12246239965838007 -0.9866324541991855
0.053769487887620926 -0.28148961067199707 -0.05154315009713173 0.6342369824637869 -0.19336758354438535 -0.7485669159864301
-0.04960785433650017 -0.1236894428730011 -0.03550340235233307 -0.9704393528709458 -0.01607278398778983 -0.2408093187862581
-0.02606440708041191 0.21398164331912994 -0.1385446935892105 -0.7134053600226519 0.6082823434793687 -0.3479157698383303
-0.05211135372519493 0.02667621709406376 0.11900461465120316 -0.5208247490142351 -0.7982984019024295 -0.30242559801426566
0.0026098527014255524 -0.11297701299190521 -0.070740707218647 0.07115257393800957 -0.5039251393681855 -0.8608116897061465
-0.058220282196998596 0.3942250907421112 0.018720388412475586 -0.43326864510340213 0.8419209387842452 0.3216324206402669
-0.0712207481265068 -0.00018099804583471268 0.06341332197189331 -0.554639694668661 -0.014480301155442441 0.8319646206277658
0.01120774820446968 -0.1895807385444641 0.08325842767953873 0.826237170895086 -0.4296534745011052 0.3643213269634548
-0.1279771625995636 0.19105739891529083 0.1158357635140419 -0.5451747267704377 0.6732920117083325 0.4994620949186488
0.016072150319814682 0.008943980559706688 0.03617675229907036 0.754719228218297 0.02458501277903827 0.6555871137417458
0.014764035120606422 -0.39843860268592834 -0.020528314635157585 -0.6370473930964838 -0.2962492401700421 0.7116227980100461
0.02553919143974781 0.0270409993827343 0.028200214728713036 0.8626594527366919 -0.01650040445100121 0.5055159792301176
0.0038718990981578827 0.28898438811302185 0.0025247354060411453 0.5875442987434102 -0.6934609996872021 -0.41701743240174116
-0.09208811074495316 0.37177467346191406 0.007256231736391783 -0.8991465542175062 0.3737742716646721 0.22765822603264085
-0.11856979876756668 -0.4084547758102417 -0.005712151061743498 0.38451604704012754 -0.8357669075051098 -0.39197077172664274
-0.08959046751260757 0.0504055991768837 0.039791256189346313 -0.9616498655248851 -0.10937471621390342 0.2515287410796204
-0.11234386265277863 0.0835033729672432 0.1465499848127365 -0.14149309055746234 -0.3215864518259345 0.9362488234046031
0.005354061257094145 0.18455202877521515 -0.029233036562800407 0.7667049019079716 -0.0662939785971368 -0.6385676955437458
0.03730267286300659 0.040931664407253265 -0.025161126628518105 0.9665070635520523 0.25466167008416335 -0.0318045577541034
-0.13255459070205688 0.09494972974061966 0.14414925873279572 -0.5526076581598397 -0.5782347194060475 0.6002244458671335
-0.0557241328060627 0.03041413426399231 0.12173224240541458 -0.47634758255650816 -0.6496442414700268 -0.5924992321660885
0.06880979984998703 -0.14219725131988525 0.01899077370762825 0.3731014323038602 0.11102159296680005 0.9211240563072502
-0.025191612541675568 -0.06374838948249817 -0.086492158472538 -0.5125156741898045 -0.05317804370599298 -0.8570296257291073
-0.05009627714753151 0.16899797320365906 0.09019061177968979 -0.05034547753884922 -0.04996335378546722 0.9974813262261573
0.043131083250045776 -0.1338985711336136 0.050716906785964966 0.8462229433584918 0.03142589208125297 0.5319014414725611
-0.06391729414463043 -0.2837178409099579 0.026728473603725433 0.9089459131301292 -0.38070535395972843 0.1699434037273397
-0.0011242442997172475 0.375684529542923 -0.013982845470309258 0.5624916596034846 0.26917389878958525 -0.7817599024553075
-0.04601284861564636 -0.16969457268714905 -0.03198634833097458 -0.9656864746466819 -0.16418778216585767 0.2012262529391242
0.0880727544426918 -0.16323992609977722 0.013774333521723747 0.4392442225412745 -0.3546563816467755 0.8253989119942722
0.019742069765925407 -0.1836826056241989 0.05858972296118736 0.30611130440719875 -0.9460674190958309 0.10607689587971988
-0.08984418958425522 -0.06870340555906296 0.012406175956130028 -0.9728628092345729 -0.12494898940522237 -0.19474522960737373
-0.08100765198469162 0.3468734920024872 0.024640940129756927 -0.82599119250346 -0.1354583107875433 0.5471650536586722
-7.1514618866785895e-06 0.1553572416305542 -0.17338202893733978 -0.39612763116423944 -0.8901068475532434 0.22537235803672892
0.08632222563028336 -0.08309875428676605 -0.01954498142004013 0.7741602907740075 0.45363446810357944 0.4414653027555925
-0.004311182536184788 -0.19000081717967987 0.010260021314024925 0.24975120087439198 -0.9555991737640533 0.15637952795445442
0.03974645957350731 -0.17421883344650269 0.05413093417882919 0.9231657746268036 -0.29803679336373845 0.24277360309381657
-0.03050454705953598 -0.2027250975370407 0.04810051620006561 0.4996036121034887 -0.8550408773450129 -0.13892922241997066
-0.001963090617209673 0.22760434448719025 -0.06285621970891953 0.9934481369079181 0.10931871901745552 -0.03331991816570283
-0.0033220695331692696 0.06472478061914444 -0.05635042488574982 0.10065608911062883 0.49152705760255216 -0.8650257241085555
0.062087081372737885 -0.40269553661346436 -0.031125638633966446 0.6741422717090111 0.7208368778002426 -0.1610167478811196
0.06765910238027573 -0.16436029970645905 -0.05591396987438202 0.2392529462766514 -0.8574045675895802 -0.4556483679049746
0.02873608097434044 -0.09756750613451004 0.05244056507945061 0.6290521044665314 0.27223783093209897 0.7281346120571485
-0.04039211571216583 0.02238275483250618 -0.0626695305109024 -0.5248761097157926 0.32661633942023366 -0.7860196157051946
0.11006888002157211 0.08731116354465485 -0.13246552646160126 -0.3843556163904599 -0.0988872842923162 0.9178736651382915
0.012285378761589527 0.09401779621839523 0.032738976180553436 0.8530699235123236 0.12163826080362265 0.5074207712612367
0.053792838007211685 -0.39664167165756226 -0.036003101617097855 0.6478482894860369 0.6621648215889735 -0.3766036946978335
0.05199779197573662 -0.17171989381313324 -0.05042318254709244 -0.21473862878203068 -0.6242538248192103 -0.751128806202638
-0.06922942399978638 0.1594899743795395 0.08564620465040207 -0.25078550284341244 -0.1133106229819948 0.9613882328606946
-0.006103270221501589 0.2024395912885666 -0.1670478731393814 0.1431692329442679 0.915107662137679 -0.3769357205612933
-0.05445545166730881 0.24589452147483826 0.061968378722667694 0.7177037760271414 0.49309299450783295 0.4916915584425679
0.05388456955552101 -0.008422354236245155 -0.045634668320417404 0.9082208227581071 0.4181965953649726 0.01570174301574022
0.10050339996814728 -0.09747551381587982 -0.04365062713623047 0.8887946846241616 0.4497817834843048 -0.08797929204940935
0.06687076389789581 -0.04454846680164337 -0.06631699204444885 0.7943173068589447 0.401189905648878 -0.4561871059442575
0.0701742097735405 -0.40894007682800293 -0.013675954192876816 0.4507506611216214 0.7810935502360056 0.4321072867681522
-0.07303564250469208 0.1911984086036682 0.08531734347343445 0.14570094399241063 -0.643667223290478 0.7513080197770062
0.0850319191813469 0.10627683997154236 -0.139119490981102 -0.34863163933075375 -0.2404738241074156 0.9058853790500799
-0.11198060214519501 0.17510583996772766 0.12151290476322174 0.6133569401403628 0.06030930391160134 0.7874998741862437
-0.014692520722746849 -0.022907452657818794 0.0670146644115448 0.5522419552854819 0.09776445004251044 0.8279317212973262
0.09105101972818375 -0.16898660361766815 -3.598707553464919e-05 0.34621353892923246 -0.8565670385375591 0.3826605466377382
-0.16263067722320557 0.12722016870975494 0.12761978805065155 -0.8510372521168393 -0.4631425330663521 -0.24745623769527927
-0.021543046459555626 0.19978493452072144 0.05688316002488136 0.7417850464943144 0.5168129419238527 0.42738662573534075
-0.050009485334157944 -0.08941593766212463 0.08654683083295822 -0.3197195045456925 0.13231083402474986 0.9382288002468973
-0.017980584874749184 0.1148604303598404 -0.03961667791008949 0.25665769176657105 0.10966408930586975 -0.9602607025041533
0.029612379148602486 -0.3590700030326843 -0.046445414423942566 0.16617724556249072 0.1512543759760544 -0.9744266195077791
-0.04644963517785072 -0.05574696511030197 0.08169485628604889 -0.22434100994630085 0.19009396119211225 0.9557904567291753
-0.09568610042333603 0.12040284276008606 -0.0025422442704439163 -0.8672060503280004 -0.002339863229294331 -0.49794396403067087
0.002571395831182599 0.13683609664440155 0.038206737488508224 0.8511566600035252 0.1633754426070517 0.498839458026922
0.007519833743572235 0.03201904892921448 -0.07265374809503555 0.23389325915851328 0.42569635075331963 -0.8741147294694875
-0.13752566277980804 -0.3988927900791168 0.0183517187833786 -0.6447895877446598 0.6585257176747775 0.388059617451998
0.06503789126873016 -0.2863922119140625 -0.03587619960308075 0.9054152949065961 -0.3597702220245583 -0.2253631094336464
-0.06780493259429932 0.14029069244861603 0.08145961165428162 -0.19507251011708074 -0.20065358320200147 0.9600441944748268
0.015668680891394615 -0.11585233360528946 -0.06956516206264496 -0.22239397544065023 -0.6020056658829948 -0.7668964062586782
0.030804691836237907 -0.3499407172203064 -0.017774663865566254 -0.054802456960697986 -0.10104811944140211 0.9933710123958859
0.0032161760609596968 0.31602853536605835 -0.012573146261274815 0.5583418926388098 -0.24634454635925418 -0.7921923348553462
0.0226113423705101 -0.4129362106323242 -0.04434903711080551 -0.39815321386591085 -0.8162105704994723 -0.41865776344548106
-0.09833782911300659 0.1280500292778015 0.006512712687253952 -0.8751762405744175 -0.01772991013530282 -0.4834792634856469
0.003891256870701909 -0.15429997444152832 0.09882304817438126 0.6107622400200612 0.27313476329054764 0.7432138906451451
-0.07110491394996643 -0.19987580180168152 0.05773720145225525 -0.8260731073085313 -0.3073747122423118 0.4723600402823928
-0.13830140233039856 0.09209156036376953 0.128035768866539 -0.739489749429265 -0.6560024193718217 -0.15104878770569227
-0.07988892495632172 -0.045361150056123734 -0.016562445089221 -0.8445531830597096 -0.27279630735253296 -0.46077336693708254
-0.00961940549314022 0.2160262167453766 0.013391552492976189 0.7763662663304596 0.5228524508366752 0.3519669517982959
0.00023102955310605466 0.16256602108478546 0.0369773730635643 0.8888195242744273 0.01050358645699883 0.45813701874015944
-0.026697756722569466 0.1761258840560913 -0.14194683730602264 -0.672392624505384 -0.7318135090026424 0.11107270840310572
0.06774042546749115 -0.04373888671398163 -0.0287594236433506 0.8731918040673341 0.3914521283585815 0.29034686930148074
-0.03558676689863205 -0.19980013370513916 0.03341331705451012 0.4950081554173125 -0.7886194595318442 -0.36475508785766353
-0.07744679600000381 -0.1826215386390686 0.004192652180790901 -0.7337675434240463 -0.4038175445753435 -0.5463667110197883
-0.022798975929617882 0.003194693010300398 0.13207070529460907 0.42333435774715494 -0.8577788057953554 0.2915536689515294
-0.09134829044342041 0.36909931898117065 0.00458169262856245 -0.9428442110944046 0.3217009725017495 0.0869095961168755
-0.07262884080410004 0.13868048787117004 -0.03295841068029404 -0.6938958775753685 -0.1977447316892252 -0.6923911699126913
0.06196686998009682 -0.2025207281112671 -0.006067042704671621 0.46885426769385735 -0.10440586546937212 0.8770832861939898
-0.11409749835729599 0.23164242506027222 0.04522190988063812 -0.9636448365918661 0.2655436214028653 -0.029584016665887898
-0.04344260320067406 0.33270400762557983 -0.02840098924934864 -0.10960800526533848 -0.32613621489170275 -0.9389468858875175
0.008773609064519405 0.34156280755996704 0.025304727256298065 0.942240038788709 -0.12569800719181035 0.3104572761129295
0.058739177882671356 -0.4205065071582794 -0.04903695732355118 0.07354365424913478 -0.29422597513586857 -0.9529020970042154
0.027443863451480865 -0.4036312699317932 -0.05312512814998627 0.002431375703556228 -0.22928253661244039 -0.9733568753631697
-0.0147333899512887 0.1250840425491333 0.061102915555238724 0.6840015739098835 -0.0027317922872058136 0.7294754171318604
-0.05498118698596954 0.060193393379449844 0.13498076796531677 0.5244559359176802 0.6818310245489019 0.5099533559486642
-0.01435872819274664 -0.012589617632329464 -0.08675176650285721 -0.3537300831496789 0.2019517571589477 -0.9132855610680237
-0.012153205461800098 0.19691820442676544 -0.04823857173323631 0.7345671964591419 -0.5396402730670807 -0.41133855833150756
0.06429994106292725 -0.17217153310775757 0.020183460786938667 0.43425913493289736 -0.7287462292177054 0.5294789298246979
-0.08497481793165207 0.14983820915222168 -0.021093128249049187 -0.7942714637743707 -0.16529026455328502 -0.5846468765653533
-0.07762236893177032 0.25613757967948914 0.08532782644033432 0.1998578783559727 0.8046943054934398 0.5590383736072866
0.024280276149511337 -0.12600573897361755 0.06401395797729492 0.6454923245289218 0.19338950327046292 0.738877634658847
-0.014402469620108604 0.11541049182415009 0.060790542513132095 0.652559704514387 0.0160928094127966 0.7575664020594495
-0.008855720981955528 0.36865127086639404 0.045236751437187195 0.32589506023442777 0.1713666696415176 0.9297450587396384
-0.02151699736714363 0.24447134137153625 -0.004528885707259178 0.8697742776621479 0.4801440429729139 0.11381741481387525
0.05828121304512024 -0.09178726375102997 0.01459062471985817 0.71536350215772 0.13670960624126932 0.6852485266981599
-0.08102359622716904 -0.2996194660663605 -0.007492118515074253 0.5954772160929723 -0.08957354701369696 -0.7983629906186462
0.03407800942659378 0.0017019330989569426 0.006774811074137688 0.895451915356486 0.13361356844818584 0.4246331141243492
-0.11772523820400238 0.19750192761421204 0.07495475560426712 -0.9608668101250082 -0.20995407523011692 -0.18070489615518998
-0.09951256215572357 -0.4007015824317932 0.0232038963586092 0.8795492898624483 0.35240638958479903 -0.31969170036500794
0.1394936889410019 0.06665762513875961 -0.15678852796554565 0.8446742751692775 -0.5119350283110259 -0.15635822861443843
-0.008901645429432392 0.18242302536964417 0.05369246378540993 0.8411957681156041 0.26333294723600964 0.4722768664717719
0.0008817551424726844 -0.04057219624519348 -0.09602343291044235 -0.10751446875096954 0.12246239965838007 -0.9866324541991857
-0.09922288358211517 0.09478981047868729 0.019719764590263367 -0.9878208380725544 -0.1520363705374599 -0.03308978548483402
0.018882688134908676 -0.28948038816452026 -0.01523414347320795 -0.7717077643157412 -0.10381139751310281 0.6274474641284138
0.025519905611872673 -0.00912874098867178 0.0294618122279644 0.7978584671286056 0.12334500315636628 0.5900914137890398
-0.005811840761452913 -0.19616296887397766 0.06481161713600159 0.19225791337622583 -0.9061955629241445 -0.37662514053208473
-0.07634340971708298 -0.12474151700735092 0.057949647307395935 -0.9723691213451121 -0.20649100045088306 -0.1089025187373003
0.06939396262168884 -0.4285464286804199 -0.010875873267650604 0.09630268141976749 0.9415258584422423 -0.3228851985396072
-0.0025808161590248346 0.22791337966918945 -0.09111817926168442 0.9700285873048619 0.20434473820085813 -0.13148295623751644
0.01004455890506506 0.34147021174430847 0.005890862550586462 0.9599100378952903 0.05340266984197104 -0.2751742611539313
-0.030982401221990585 0.1453336477279663 0.07733437418937683 0.5699946890506564 -0.23356969143817316 0.7877507560742308
-0.14075222611427307 0.18203012645244598 0.10048138350248337 -0.8067269301056954 0.5386940884004963 -0.24289985459978944
-0.10691550374031067 0.07089497148990631 0.1248556524515152 -0.583918553282235 -0.5169354101673532 -0.6259527976196706
0.008341074921190739 0.05858778953552246 0.04720783233642578 0.7532060710358509 0.08371562545951339 0.6524356739239964
-0.12085559964179993 -0.4136740267276764 0.03148292377591133 0.5731665799924294 0.784229849306495 -0.23762073780815984
0.09241238236427307 -0.11298976838588715 -0.002106116386130452 0.6108254270145176 0.4002188592219749 0.6831670091826694
-0.12462832778692245 -0.40784353017807007 0.05002706125378609 0.42304597068266137 0.9049920020466274 -0.04496201642277462
0.031300198286771774 -0.0967484787106514 0.05005363002419472 0.6302308478333145 0.28668857736527653 0.721539145194199
0.002337350510060787 0.1842331737279892 -0.1301765888929367 0.8149766256925786 -0.3975981967203398 0.42157890547259674
-0.04627883434295654 0.10769575834274292 0.0756194218993187 0.0956947267061866 -0.15877674807206435 0.982665997962832
-0.07061594724655151 -0.16000445187091827 0.05155118182301521 -0.9551335861068728 -0.10720564376374747 -0.2760919822012681
-0.02694469876587391 0.393070787191391 -0.015343490056693554 0.25452796207748174 0.6029439618488991 -0.756091327413982
0.010159584693610668 0.08471550047397614 -0.03835089132189751 0.5679795972578755 0.5591575621845122 -0.6039387367528724
0.0008393920725211501 0.09084421396255493 0.04970613494515419 0.703414241026127 0.10046422288312941 0.7036443316350431
-0.06425421684980392 -0.08739595115184784 -0.02385820262134075 -0.7762864272510686 -0.21749331475908165 -0.5916722411106325
-0.05804789811372757 -0.26657772064208984 0.031611278653144836 0.9454663085261144 -0.3093995315916961 0.10181055590085665
-0.059886399656534195 -0.16900378465652466 -0.011509409174323082 -0.48106062684446044 -0.3582672795574434 -0.8001407561788885
0.029909826815128326 0.1768912374973297 -0.16105902194976807 0.315628132095419 0.8087309612880058 0.49631956891113493
0.12101422250270844 0.10900077223777771 -0.1520213484764099 0.7104311783824574 0.633345188648732 0.3068573166760328
0.027667153626680374 -0.03951415419578552 0.028607720509171486 0.6793840869589696 0.17038376017993553 0.7137272845098985
0.027663635089993477 0.04788018763065338 0.0182257741689682 0.9344951749598932 0.16425279657282718 0.3158160648141319
-0.009284493513405323 0.17008034884929657 0.0579325333237648 0.8771229928440237 0.013708327447625438 0.4800701377746084
0.0028982663061469793 -0.20279303193092346 0.08744505792856216 0.3025402151348992 -0.9465894601638354 0.11152493951071063
-0.024001972749829292 0.2497464269399643 -0.022143704816699028 0.7111787517107336 0.7006537521517728 0.05752480083237975
0.06056265905499458 -0.20025049149990082 -0.041576825082302094 0.6045645275917857 0.18859209106112196 -0.7739087511889982
-0.14778032898902893 0.10476555675268173 0.13915681838989258 -0.6315064721792177 -0.5528784427743493 0.5436221142587649
0.10089419037103653 0.12380073964595795 -0.14970126748085022 0.5503971852203866 0.719654488081067 0.4232733824447893
0.03243699297308922 -0.1399989128112793 -0.05553853139281273 -0.2538633908717358 -0.5947906168339302 -0.7627434043644148
-0.060685813426971436 -0.1891503930091858 0.008123773150146008 -0.2661645355465318 -0.9234257203834746 -0.276480340985684
-0.0754024013876915 -0.17105431854724884 0.006008114665746689 -0.7995453993328909 -0.061559706565814915 -0.5974425134966032
0.04391728714108467 -0.3595484495162964 -0.020053287968039513 0.8521248985258394 -0.14260440406964733 0.5035346475191838
0.05165643244981766 -0.3400411009788513 -0.033018071204423904 0.9414346446294505 -0.24418827964205775 0.2325357907438607
-0.0008206374477595091 -0.1963605284690857 0.0663813054561615 0.24929526436546207 -0.9036247601521386 -0.34830182888544325
-0.07623636722564697 0.256041556596756 -0.024239463731646538 -0.7824282870886183 0.526932453124228 -0.33188577162640487
-0.08823565393686295 0.143694207072258 -0.012443425133824348 -0.8378032118542321 -0.15012420468920018 -0.5249271391090081
-0.09954295307397842 0.0973982885479927 0.01751902513206005 -0.9858036154843365 -0.14798551224223122 -0.07931910151038697
0.08214373141527176 -0.12192656844854355 -0.06983500719070435 0.6478668698409703 -0.14671437356374625 -0.7474914123602094
-0.018120482563972473 0.1531713604927063 0.06783758103847504 0.7517792514271396 -0.27598545178331685 0.5988822818614756
-0.051803380250930786 -0.08537711203098297 0.08492181450128555 -0.46695555578168324 0.1488356977121386 0.8716653279849786
-0.014361399225890636 0.250978946685791 -0.06500153988599777 0.693452815112566 0.7204594180764221 -0.007837098789778623
0.0065931882709264755 -0.12188529223203659 -0.06405490636825562 0.027983682969168696 -0.4703727044244698 -0.8820240543317917
-0.04661989212036133 0.23736073076725006 0.05862129479646683 0.7510235133374187 0.4393927840749615 0.4928464910265412
0.06002311035990715 -0.027865398675203323 -0.06320440024137497 0.8306447178214957 0.4217063051012564 -0.3635837523777622
0.06621169298887253 -0.2227712869644165 -0.014265141449868679 0.7624677021406844 -0.030592136649087817 0.64630265693988
0.029761511832475662 -0.30223143100738525 -0.053723834455013275 -0.26528314145948484 -0.10954185229595846 -0.9579276786130347
0.0722372904419899 0.12328324466943741 -0.14201387763023376 -0.3252090865240746 -0.0020601787614074646 0.945639892192397
0.012408792041242123 -0.2731594741344452 -0.024823276326060295 -0.9525964547421055 0.0034459046206732347 0.3042172252751592
-0.017962347716093063 0.20718270540237427 -0.1580747663974762 -0.2543424401023963 0.8307779135026649 -0.49509391189845753
-0.02750113420188427 0.25737205147743225 -0.0020241867750883102 0.975111809283033 0.2191411867798226 -0.03367639608837365
0.017562726512551308 0.17643119394779205 -0.0037611303851008415 0.9865823262400141 -0.07717678668739263 -0.14387166902295628
-0.06185261905193329 0.10172770917415619 0.07557638734579086 -0.2289269534889092 -0.14316128438644962 0.9628589183359674
-0.07408730685710907 0.04989511892199516 0.13952122628688812 -0.3811759370387872 -0.6151503530396132 0.6901412523374051
-0.04714091494679451 0.01488431729376316 0.0735875815153122 -0.1687280097924299 -0.013989719762952183 0.9855633650113218
0.07868573814630508 -0.11993616074323654 0.010519785806536674 0.46850187997427056 0.2928091878935427 0.833527904719271
0.008443262428045273 -0.4032416045665741 -0.035023000091314316 -0.7388849781766359 -0.6731965781705912 0.029246472681666223
-0.06137726455926895 -0.10881638526916504 -0.022526968270540237 -0.6983316473177451 -0.2155157833668918 -0.682558318002381
-0.10610776394605637 0.13546691834926605 0.02207392081618309 -0.9546760613120443 -0.17274951600385544 -0.24238651505014797
-0.12700356543064117 -0.4047093689441681 -0.020875347778201103 -0.11733427497756901 -0.9739404089188762 -0.19409468769242644
0.07486813515424728 -0.20737136900424957 -0.026327690109610558 0.9993356271692527 -0.03223853397749884 0.016999446968007797
0.028592277318239212 0.06508660316467285 -0.0032277146819978952 0.9464626407850096 0.2997570295642109 0.11980898474282506
0.04949713498353958 -0.16073673963546753 -0.059866733849048615 -0.4605305148947235 -0.5266861191597075 -0.7145021880549335
-0.07043247669935226 -0.20485569536685944 0.04910418018698692 -0.9747251135125101 -0.03228328269134625 0.22106275748459997
0.010697007179260254 -0.19846542179584503 0.07986483722925186 0.3930898676478736 -0.8749248748271468 -0.28281941121726206
-0.06481674313545227 -0.017076972872018814 0.06757257878780365 -0.5655550528914736 0.06147826507292912 0.8224158954401023
-0.037208281457424164 -0.14283373951911926 -0.06659934669733047 -0.3362341006972802 0.026122914946036333 -0.9414160731807236
-0.05814368277788162 0.26600372791290283 -0.03347713500261307 -0.33618380640989076 0.7911892268164 -0.5108816454693047
-0.10452361404895782 -0.3365088105201721 -0.01921570487320423 0.39627263189708223 0.05283737691723673 -0.9166112659191276
-0.08010148257017136 -0.07676763832569122 0.04859648644924164 -0.9584997234341109 -0.07830354042298417 0.27412923181222243
-0.08498446643352509 0.34779131412506104 -0.014880109578371048 -0.7219062824380313 -0.33320558593439914 -0.6064860731118359
-0.12115868926048279 0.15712258219718933 0.09745082259178162 0.3736383535497482 -0.44868691660118093 -0.8118339926533986
0.05620478838682175 -0.0170908160507679 -0.058704476803541183 0.8825468007100301 0.4339397914946008 -0.18112813672677358
0.003959755878895521 0.20404714345932007 0.00697907293215394 0.7628606083563487 0.5715358711391675 0.3023085182712759
0.01293136551976204 0.1336098462343216 0.005044695921242237 0.9726521245512112 0.12539474866613928 -0.19550959468264206
-0.036431558430194855 0.38853028416633606 -0.02240128628909588 0.13824078490901812 0.559108948623403 -0.8174880237391687
-0.06658671796321869 -0.17916356027126312 0.02308935672044754 -0.648711530007296 -0.6392513393998418 0.41295408450710547
0.04027974605560303 -0.3566671907901764 -0.041504867374897 0.8015289270868124 -0.04206858533887706 -0.5964743189531708
0.010991021059453487 0.34410253167152405 0.007311712950468063 0.9752198945116255 -0.18692736168175925 -0.11833984453019575
-0.005805464927107096 0.39153820276260376 -0.006553876679390669 0.5780442457358623 0.6094073657611188 -0.5426670365221682
-0.006013000849634409 -0.04921472445130348 0.06425222009420395 0.6595492716155706 0.19653046045442715 0.7255139808611142
0.025678487494587898 0.07853623479604721 -0.006195736583322287 0.9528987055192732 0.30319651216934507 -0.007478771826815802
-0.07478278130292892 0.04314861819148064 -0.01208912581205368 -0.7821162687285391 0.014357410634736365 -0.6229670994121703
-0.020267242565751076 0.25580403208732605 -0.050941333174705505 0.5939216033044757 0.7955668373818242 0.11971021838808522
-0.019497526809573174 0.21262270212173462 0.03560060262680054 0.7798844532386634 0.4772675854039713 0.4049640620095742
-0.08278167247772217 0.2282857745885849 0.1082269698381424 0.23572685827046463 0.2974290484333114 0.9251858242742327
-0.039674557745456696 0.009606222622096539 -0.0668068379163742 -0.5382874701101622 0.2553520141942868 -0.8031450356998554
-0.011829953640699387 -0.11045403778553009 0.09130397439002991 0.39810837160252344 0.31652456964007225 0.8610005350022462
-0.00948950182646513 -0.06286126375198364 -0.09592822194099426 -0.2157799740318512 -0.14259118492902287 -0.9659745114584293
0.03493792191147804 -0.23972980678081512 -0.055810458958148956 -0.30268046606382615 0.211647065382471 -0.9292954617226821
0.09752468764781952 -0.12253513187170029 -0.0020331370178610086 0.6134452806818395 0.38798278321494434 0.6878620846782912
-0.06462015211582184 -0.12659242749214172 0.03671044111251831 -0.9649558656929127 -0.2622211791770005 0.010011516162155142
-0.06514275074005127 0.13785149157047272 -0.03809993714094162 -0.5845520733305435 -0.22260089699909358 -0.7802228618927811
0.0664411336183548 -0.24966365098953247 -0.01863260194659233 0.8981708639166134 -0.03328285360425713 0.438384934580606
-0.06953065097332001 0.19567769765853882 0.08793917298316956 0.09583650605155265 -0.5153993580580063 0.8515743454456726
0.02434886060655117 0.006462853867560625 -0.0790664404630661 0.47414023051810017 0.3911034032140754 -0.7888150415646314
0.05785325914621353 -0.11986415833234787 0.020432990044355392 0.6749991839771364 0.12926203440971826 0.7264072054230057
-0.03633163869380951 0.3030321002006531 -0.017735112458467484 0.07236908377627937 -0.2761343643307796 -0.958390592894681
0.014288104139268398 0.0707411989569664 -0.04563141614198685 0.538604029856002 0.47524837216037763 -0.6957331987060744
-0.09094143658876419 0.20608006417751312 -0.02556866593658924 -0.8935348685977431 0.017392550078644924 -0.4486568151736647
-0.07210494577884674 0.1931530237197876 -0.053448956459760666 -0.6782101664706177 -0.15369065117717057 -0.718616833811061
0.06951100379228592 -0.4118722081184387 -0.037378355860710144 0.7053732152629273 0.5643531413828629 -0.42889877477201377
0.02855883166193962 -0.35917583107948303 -0.017162848263978958 -0.2996977150671675 0.15175763215752172 0.941886883158196
0.04064536094665527 -0.2518329620361328 -0.004905726760625839 -0.07287318067703225 0.045755105850579354 0.9962911069695518
0.028808070346713066 -0.0017598627600818872 0.02104000560939312 0.8307613872090741 0.1061259764376012 0.5464181499983513
-0.02152877300977707 -0.00471511110663414 0.06999609619379044 0.39274695139645877 0.05697984285097103 0.917879692376657
0.019956514239311218 0.18417349457740784 -0.17606186866760254 0.6474395535148922 0.7191290650368714 -0.2523398747000412
-0.13743902742862701 0.10037059336900711 0.14492948353290558 -0.45780885237937397 -0.39012561434342746 0.7988823816534222
-0.020782722160220146 0.3475872576236725 -0.024764470756053925 0.3251168000897953 -0.07535679535710976 -0.9426666535381841
-0.1337045580148697 0.0904010534286499 0.12455494701862335 -0.5005559873582397 -0.701764706432849 -0.50692208506341
-0.11642774939537048 0.21390926837921143 0.06391594558954239 -0.9959863527226182 0.08871181967043137 0.011891099236711179
-0.0566357858479023 0.10713030397891998 0.0768127590417862 -0.027722621813863584 -0.19298763649480263 0.9808094760961048
-0.003123494330793619 0.035257481038570404 -0.07161607593297958 -0.009070177625391149 0.433497589124736 -0.9011090789138047
-0.11717236787080765 0.21352297067642212 0.06063823029398918 -0.9950197651792645 0.09231818623907062 0.03759015020094591
-0.07457228749990463 0.06604771316051483 0.14056523144245148 0.47475839701069017 0.4157724705816726 0.7757175498686696
-0.04735485464334488 0.04346529394388199 -0.046173032373189926 -0.6241046773068052 0.28030926679822404 -0.7293285039752736
-0.022919774055480957 0.19015532732009888 -0.09664438664913177 -0.05166692790454351 -0.9075458046013829 0.4167626916019896
-0.04937285929918289 -0.1622709184885025 -0.040564291179180145 -0.9403505245498538 0.03162724781911901 0.33873383086754555
-0.046872664242982864 0.37464186549186707 0.044934507459402084 -0.2719325877702333 0.34136141098067013 0.8997361028667632
-0.10304124653339386 0.2548505663871765 0.06986302137374878 -0.6373202775481174 0.736483463505696 0.2267486974794887
-0.11747031658887863 0.08191154897212982 0.14400111138820648 -0.2773690319078877 -0.523287600252625 0.8057521377944524
-0.076036237180233 -0.3114466369152069 0.007141549605876207 0.8593615872221451 -0.49481611374676654 -0.129052996802022
-0.0023040345404297113 -0.381792813539505 -0.04391305521130562 -0.8322934370141132 0.23677057254984252 -0.5012258280233117
-0.10030180960893631 0.08464651554822922 0.11948947608470917 0.2954149498627055 0.23582758608506973 -0.925805247899851
-0.06075514480471611 0.010573508217930794 -0.04507576301693916 -0.7622250700454363 0.20670325783441212 -0.6134221269198483
-0.14172382652759552 0.10040609538555145 0.14147110283374786 -0.6128011252391311 -0.6487604960810689 0.4512035013497792
0.018444625660777092 0.07897014915943146 -0.03401186317205429 0.7359810728683993 0.496187636843183 -0.4605753895112693
-0.1293012499809265 0.19539612531661987 0.09604909271001816 -0.8188332513759469 0.5649237722266164 -0.10184909432265632
-0.06257635354995728 -0.23817799985408783 0.015975510701537132 0.1864285736987235 0.3214822168133921 -0.9283822333400219
-0.14574389159679413 -0.40075138211250305 -0.009867926128208637 -0.5584561044988335 -0.8182673496171614 -0.13625462890666942
0.02480236068367958 -0.2678545415401459 -0.054707083851099014 -0.525953173486746 0.06611894262369988 -0.8479395878985395
0.048849351704120636 0.15790574252605438 -0.17850829660892487 0.48954561797598667 0.31359294173210867 -0.813636623325371
-0.06311613321304321 0.24752412736415863 0.0760100781917572 0.6780744568152953 0.5302714590306594 0.5089471590962444
-0.08354076743125916 0.25271114706993103 0.09109523147344589 -0.0087580743236023 0.7587740570510454 0.6512950379670025
-0.1133992075920105 0.14976496994495392 0.11212220788002014 0.9161300937347625 -0.39980811394189136 -0.029310806535523728
0.018880736082792282 -0.11507842689752579 0.06576472520828247 0.6593629229429466 0.22221062596803592 0.718236015217162
-0.04883454740047455 -0.14409205317497253 -0.025230249390006065 -0.9019254543943127 -0.1269241523122029 -0.41282046252025995
-0.022867273539304733 0.2504122853279114 -0.013343177735805511 0.8855746686577177 0.46446624380896595 -0.005349261048381838
-0.009198215790092945 -0.15668585896492004 -0.0583745613694191 0.4153472553614612 -0.1677015587121296 -0.8940709393941979
-0.0008916063816286623 -0.19231364130973816 -0.0037448888178914785 0.20700917669899338 -0.9615883554887568 0.18026379378797452
0.006470206193625927 -0.19994576275348663 0.08531565219163895 0.5932025717720558 -0.7846363862724708 0.18015673781542907
-0.08564630895853043 -0.011447795666754246 -0.016213204711675644 -0.8279927027782737 0.002194806523630647 -0.5607345780048284
-0.08902745693922043 0.12225694209337234 -0.010886840522289276 -0.8196180636011421 -0.05707630883907893 -0.5700601062940823
-0.042616106569767 -0.16629497706890106 -0.023128164932131767 -0.742041377383262 -0.6091220903446379 -0.2799015421631869
-0.11427459120750427 -0.3423551321029663 0.015290690585970879 -0.5211275610581144 -0.44327290210247555 0.7293388782776291
-0.027900610119104385 0.3883594572544098 0.03923432156443596 0.02734210495623399 0.5922037984374211 0.8053242020533423
-0.0925731435418129 0.08261992037296295 0.12022167444229126 0.31635199705339556 0.1799885163189476 -0.931410515268983
-0.07233985513448715 -0.29971450567245483 0.026893334463238716 0.7663804566299994 -0.5555531913977518 0.3225238707807015
0.01180786732584238 -0.11474902927875519 -0.06924830377101898 -0.15716636304804443 -0.6146250115878918 -0.7730037706614594
-0.0730048194527626 -0.15362833440303802 0.02004074491560459 -0.8012305996082875 -0.07610043047968738 0.5934966307673115
-0.08058996498584747 0.25172626972198486 -0.001963923452422023 -0.8099157464371701 0.5292972420065277 -0.25274673742188003
0.034834712743759155 -0.3561458885669708 -0.04478597268462181 0.3503642295349913 -0.05263228980658852 -0.935133545934519
-0.022563351318240166 0.38624176383018494 0.04083796590566635 0.08741572719413047 0.5583285994914582 0.8250016155311626
-0.03895220160484314 -0.030008021742105484 -0.0769873633980751 -0.6017427391101875 0.053926283401809105 -0.796867386637599
-0.0013470022240653634 0.2245829850435257 -0.0579865388572216 0.9981963387288101 -0.00865024041609725 -0.059407429578651166
0.039865780621767044 -0.2774950861930847 -0.006246952805668116 0.1347280416100278 -0.18692997611594306 0.9730907145961365
-0.00631341990083456 0.3859855532646179 -0.012204580008983612 0.4815691670748131 0.4600837960099698 -0.7459316577086184
0.021911591291427612 0.0885821133852005 0.0015462307492271066 0.9660628291866611 0.258209025468434 -0.00712104139193631
-0.12360336631536484 -0.4120405316352844 0.024338316172361374 0.4014996902491885 0.6045956951305482 0.6879404364909909
0.0050208717584609985 -0.15495285391807556 0.09789129346609116 0.6577287841125067 0.2593409504993657 0.7072023175470857
-0.053262077271938324 -0.18340599536895752 -0.007419792469590902 -0.5047131852961604 -0.5042515606276836 -0.7007103283046063
-0.03572583198547363 0.000753947882913053 0.12397449463605881 -0.2785759900577825 -0.930264215968068 -0.2387549083320425
-0.01278428640216589 0.16450272500514984 -0.18377918004989624 -0.7360153674183768 -0.5061101786482148 -0.44959300038219435
0.1297665685415268 0.07221215963363647 -0.13408979773521423 0.4847508662280293 -0.21932077191752436 0.8467083303574358
-0.09538737684488297 0.0922313705086708 0.03969184681773186 -0.9453923188101214 -0.19906828215879005 0.25807979884750804
-0.0399465449154377 -0.19461265206336975 -0.0377635583281517 -0.6282469592690056 -0.7525075071757492 -0.19758089435314377
-0.03574226051568985 0.26484939455986023 -0.02118181809782982 0.6927671340854777 0.6439029077856167 -0.32475027833124537
0.046721622347831726 -0.06207701563835144 0.018035002052783966 0.7010135975621722 0.32689057645652964 0.633815814773392
-0.06301833689212799 0.0029347704257816076 -0.04350268840789795 -0.7756730018159483 0.18534236069257923 -0.603307221560241
-0.09882766008377075 0.12104624509811401 0.05720681697130203 -0.8610202196461478 -0.3303772886350354 0.3866458696464529
-0.07210569083690643 -0.1965186446905136 0.0721072256565094 -0.7526650438922474 -0.1300786635712171 0.6454261173722423
0.012889289297163486 0.1823011338710785 -0.15418094396591187 0.8091148280309096 0.0875856421785605 0.5810868698780594
0.08206705749034882 -0.06300819665193558 -0.04806423559784889 0.878799159520181 0.4684864345163071 -0.09073311358496049
0.01570616103708744 0.16905415058135986 -0.00691523402929306 0.9813837250518778 -0.12893333317062453 -0.14234528373224475
-0.03939751908183098 -0.16591991484165192 -0.06204817816615105 -0.5653139629423621 -0.26225389298328905 -0.7820760953497499
-0.0697634294629097 0.07173682749271393 -0.023944465443491936 -0.6932491919314817 -0.05589024657360131 -0.7185275486884896
-0.05722154676914215 0.360067754983902 -0.03207426518201828 -0.18553128626533433 -0.07839968072780204 -0.9795058100279495
-0.027965663000941277 0.06393955647945404 -0.0514957532286644 -0.2604439204583929 0.23306306157969872 -0.9369368034309251
-0.010292332619428635 0.38372305035591125 -0.015889931470155716 0.42883727408213845 0.46823890217608866 -0.772561274493313
-0.07746081799268723 -0.09927645325660706 0.05944805219769478 -0.9670439914265957 -0.12335059976808087 0.22273425462324603
-0.00013495871098712087 0.20951086282730103 -0.12563717365264893 0.9680590655654657 0.25065485489049794 0.0058128561259249666
-0.1462775468826294 0.15136362612247467 0.10199044644832611 -0.6983158476458546 -0.12930883233321577 -0.704012928011462
-0.1254507452249527 0.13821016252040863 0.1114582046866417 0.6427615799620142 -0.6191576312056145 -0.451111271245341
-0.004817127250134945 0.21619492769241333 0.0014621831942349672 0.8122409733128256 0.5278225397858408 0.24833036013717336
-0.017811017110943794 0.33914557099342346 0.04661906510591507 0.18477238967748325 -0.047828247769823445 0.9816168410984709
0.020927375182509422 0.051625195890665054 0.03096030466258526 0.8585483486116698 0.14015290423637344 0.49320573448641536
-0.16313602030277252 0.13444361090660095 0.1301676630973816 -0.9866292641425272 -0.041105415990116315 -0.157711888942638
-0.0017563587753102183 0.3604990243911743 0.04186365380883217 0.5211805399672854 0.017098331888020932 0.8532751559761107
-0.06071895733475685 0.27314382791519165 -0.023002037778496742 -0.3795588450066107 0.6634328925894282 -0.6448192616599414
-0.05247354879975319 0.0015954653499647975 0.0720166489481926 -0.2133751893273811 0.02173963139598122 0.976728425411215
-0.07817240059375763 -0.16188207268714905 0.010513870045542717 -0.9930210118101557 0.010723574401132545 -0.11744903173546506
0.018907029181718826 0.10476268082857132 0.007600237615406513 0.9676427801924852 0.20368007186774104 -0.14893581928236635
-0.022986894473433495 0.0951179787516594 -0.043565601110458374 0.06171971701742171 0.22771034468215826 -0.9717708965882969
-0.022517627105116844 -0.1931012123823166 0.016296712681651115 0.12937385075783056 -0.9912814930597927 0.02496814484976257
-0.030342934653162956 -0.08414702862501144 0.08942262828350067 0.07590914313083154 0.24719760728742904 0.9659871349767103
-0.12486469745635986 -0.3409973382949829 -0.020221713930368423 -0.7829663284784548 0.48334669620220916 -0.3915861332317294
-0.004849438089877367 0.06943228095769882 -0.05358792841434479 0.1471292467420899 0.49058085081615826 -0.8588849827337764
-0.04873204231262207 0.3269476890563965 -0.022964945062994957 -0.20147543817270128 -0.3671954138828328 -0.9080612181106146
-0.10981325060129166 0.16862311959266663 0.013501427136361599 -0.9059312229058872 -0.2516422867917378 -0.34053601698273944
-0.045642755925655365 0.22164876759052277 0.07288433611392975 0.7330564488459863 0.4190262647046552 0.53576602383221
0.017449939623475075 0.09790250658988953 -0.013896338641643524 0.8887145165713406 0.3539268040490769 -0.2914143534745242
-0.10766703635454178 0.17630107700824738 0.004256415646523237 -0.8418883084768376 -0.1603327198329688 -0.5152838974788285
-0.017209375277161598 0.0317695215344429 0.1337318867444992 0.8718811620005877 0.3090313615697145 0.3798984823803241
-0.09409109503030777 0.08707485347986221 0.042772796005010605 -0.9145477528113614 -0.1498153788575589 0.3757096752619704
0.14020580053329468 0.09429742395877838 -0.1609215885400772 0.5574249639010543 0.3538593961692633 -0.7510399039749038
-0.10857699811458588 0.14241693913936615 0.031929440796375275 -0.9821346151671853 -0.1697925254179975 -0.08113011772815182
0.053532857447862625 -0.0977577269077301 0.020384104922413826 0.811564023226076 0.12103772093904004 0.57158875628811
0.026805616915225983 0.0265276450663805 0.02485458180308342 0.8807499623680365 -0.010265040535774756 0.47347030818362984
-0.06913309544324875 -0.15342554450035095 0.068649522960186 -0.8769609752995655 -0.21532155295202476 0.4296231798168756
0.07414328306913376 -0.0730123221874237 -0.07452042400836945 0.6973388586801114 0.22740588249369814 -0.6797095561943955
-0.028790492564439774 -0.19380711019039154 0.011708066798746586 0.09938163699913788 -0.993542215860849 -0.05474628324996751
0.03945162892341614 0.02341250702738762 -0.025348901748657227 0.978854541338762 0.19861886876112522 0.04893191057513169
0.06496334820985794 -0.26866263151168823 -0.04360984265804291 0.8591406344277249 -0.12805481027439236 -0.4954587125490033
-0.11554263532161713 -0.29443368315696716 0.00999085046350956 -0.9393074990755831 0.28441716505006615 -0.19185488892717023
0.04417160898447037 -0.259508341550827 -0.006094025447964668 0.3544531942369824 -0.024482983873753906 0.9347531848546105
-0.09141170978546143 0.036220431327819824 0.014057530090212822 -0.9702189445588665 0.23459563734980954 -0.06033312983358202
0.011735520325601101 -0.07648167014122009 0.05736197531223297 0.6228020029932556 0.3270578983872585 0.7107396120732957
-0.08765311539173126 0.3563516438007355 0.013723892159759998 -0.9208857207102208 -0.009582184195869493 0.3897148587596496
-0.10627327859401703 -0.38757434487342834 -0.013906814157962799 0.9518864051861965 -0.1485154549522767 -0.26805863400013497
0.07213004678487778 0.1261306256055832 -0.1705814003944397 0.10107693051922736 -0.5346818068310197 -0.838986781517282
-0.005124266725033522 0.040906161069869995 0.061164744198322296 0.5539333100617263 0.09772630729908452 0.8268055737993935
0.041291605681180954 -0.028384841978549957 0.010306078940629959 0.8230817614534254 0.15678742976857576 0.5458517342917311
-0.0982740968465805 -0.27159449458122253 0.050843145698308945 -0.5268481973572704 -0.1222003095811542 0.8411290396126297
-0.12365394830703735 0.13802939653396606 0.11359579116106033 0.6427615799620134 -0.6191576312056147 -0.45111127124534184
0.022393768653273582 -0.2542630732059479 -0.010131660848855972 -0.4862223124806708 0.1410917146435358 0.8623694051303629
-0.03386668115854263 0.34141311049461365 -0.029684145003557205 0.2547075495687456 -0.18414145213437763 -0.9493239646182582
0.028082353994250298 0.04667288064956665 0.017166029661893845 0.9344951749598932 0.1642527965728272 0.3158160648141317
-0.11868663877248764 -0.34187668561935425 -0.024799639359116554 -0.15196088697618576 0.5147878031234601 -0.8437425001650282
0.01649480313062668 -0.27373945713043213 -0.01566016487777233 -0.8586854846582339 0.025467756310945416 0.5118697410726094
-0.10350663959980011 0.13203221559524536 0.0544649176299572 -0.9112986878794834 -0.2561836060310178 0.3223424599243423
0.11364889144897461 0.0884111076593399 -0.15995316207408905 -0.2603135462346986 -0.3010063954281446 -0.9174050400766669
0.020757334306836128 0.14325891435146332 -0.18153348565101624 -0.2128243771534616 -0.7392062181692983 -0.6389678798727562
-0.08893989026546478 -0.052578896284103394 0.033069927245378494 -0.9395813533202344 -0.06253654455412226 0.3365650919037019
0.08260656148195267 -0.08527618646621704 -0.011083444580435753 0.7369589785786073 0.4066954249768637 0.5398984119214133
-0.14726927876472473 0.11953674256801605 0.11939693242311478 -0.41745706071545907 -0.41704581748118374 -0.807342794963986
0.06680436432361603 -0.17316438257694244 -0.04408663883805275 0.1948058528516629 -0.6432693032430746 -0.7404426265416556
-0.07481178641319275 -0.08471836894750595 -0.012314541265368462 -0.8258451623343986 -0.1342410880630072 -0.5476852180993483
-0.12188084423542023 -0.3209008574485779 -0.0012519689043983817 -0.9336031044951103 0.26874556717865494 -0.23698325552434177
-0.1011485829949379 0.18217171728610992 0.0880688801407814 0.48367938194452403 -0.8409989439846312 -0.2424356238231062
-0.09142793715000153 -0.2800784707069397 -0.00727167259901762 -0.0671041657098365 0.3121317004740258 -0.9476659920581618
0.016032112762331963 -0.09244123101234436 0.061054255813360214 0.6154627572572925 0.28262724820382196 0.7357495722064584
-0.07279007881879807 0.3890591561794281 0.012050931341946125 -0.5479603252865157 0.7892740336624692 0.2771028359617987
-0.0412234403192997 0.38096892833709717 0.04367301985621452 -0.14549446016660933 0.5547666009187036 0.819185803445064
-0.08712022751569748 0.2671714127063751 0.05931263789534569 -0.3364253085900429 0.9049092421955294 0.2606861621360196
-0.01878732070326805 -0.203897625207901 0.09899905323982239 -0.1064494307320599 -0.840090220886743 0.5318993696812244
-0.14677046239376068 0.1097920835018158 0.14593680202960968 -0.5117117110377204 -0.3903323188677872 0.765370371541873
-0.09375698864459991 0.0566285215318203 0.01593591831624508 -0.9818250457242814 -0.08864487749284478 -0.1678143774615014
-0.01493078749626875 0.16625991463661194 -0.16349606215953827 -0.5609361259512029 -0.8256016918176341 0.06109426381188976
-0.046963881701231 0.17044095695018768 0.09063293039798737 0.08912298734756165 -0.02764033223935816 0.9956370348475112
-0.12977851927280426 0.1258038431406021 0.14511056244373322 0.35818963914376095 0.33634514742613814 0.870960460763261
-0.07207751274108887 -0.11911524087190628 0.048476193100214005 -0.9185204049543678 -0.170615861321129 -0.3566658009230961
-0.0679549127817154 -0.12321744859218597 0.07334291934967041 -0.8359530496034883 -0.027867678953914087 0.5480929586560563
-0.10110225528478622 -0.2818032205104828 -0.004893800709396601 -0.3770180411222004 0.23155688226591373 -0.8967936256149843
-0.1083260104060173 0.22695808112621307 0.015487582422792912 -0.8552763745237206 0.30819322696938334 -0.41655642838846996
