ply
format ascii 1.0
comment VCGLIB generated
element vertex 393
property float x
property float y
property float z
property float nx
property float ny
property float nz
element face 0
property list uchar int vertex_indices
end_header
-0.05272471159696579 0.32065901160240173 0.03999800235033035 -0.28395314698526986 -0.27892309784307767 0.9173726155749269
-0.06099269166588783 0.21282610297203064 0.08870954811573029 0.5444845412572247 -0.06022434120688205 0.836606008260822
-0.09995508939027786 0.06540098041296005 0.025032084435224533 -0.99721866070288 -0.07334181348868687 0.013263526685797632
-0.014822366647422314 0.2397819459438324 -0.056313324719667435 0.8839688184078756 0.46121364356846917 0.07668835028139184
-0.028432030230760574 -0.009506016038358212 -0.081220842897892 -0.36821841859530924 0.17781092161247955 -0.9125779267341997
-0.04381335899233818 0.24233050644397736 0.0469907708466053 0.783796916003765 0.43243701447300553 0.44571361093942446
-0.035245105624198914 -0.18975743651390076 0.02668171189725399 0.2637078172573684 -0.7546238906124273 -0.600833563338732
-0.022423192858695984 0.009813845157623291 0.07073873281478882 0.5342017973841994 -0.0027493685180542547 0.845352518565032
-0.03405672684311867 0.19629772007465363 -0.0645044595003128 0.2868711361225858 -0.9407830040143782 -0.18064409931525396
-0.08022464066743851 0.14810886979103088 -0.03362687677145004 -0.6423448339438335 -0.22859632277941472 -0.7315304747701211
-0.05118269845843315 -0.19856619834899902 0.08371109515428543 -0.6622365030653645 -0.37221405270934765 0.6503072450568582
-0.06726090610027313 0.012917694635689259 0.10005775094032288 -0.7110385659106663 -0.19795569785758263 -0.67471304972812
-0.07836807519197464 -0.07119541615247726 -0.016833564266562462 -0.7787424125138702 -0.290208458349612 -0.5561827987761028
0.016315557062625885 -0.2436894178390503 -0.035664282739162445 -0.9911524382179684 0.11591468568341175 -0.06465779038516796
0.014113998971879482 -0.1483791619539261 -0.05449413135647774 -0.026577946679744675 -0.4769739558457368 -0.8785154854612169
-0.056830886751413345 0.39894017577171326 0.015421727672219276 -0.3391735596622749 0.9162569200040689 0.21315382466819244
-0.06090575456619263 -0.09145531058311462 -0.026364553719758987 -0.7562106846845438 -0.5617508732575742 -0.3355314542085231
-0.050138238817453384 -0.20207363367080688 0.08539808541536331 -0.45064479531526913 -0.6616278686513383 0.5993061253475946
-0.01637500897049904 0.2172207087278366 -0.127028226852417 0.5298415483652466 0.7745779694363297 -0.3453938373651309
-0.09030363708734512 0.03972700238227844 0.1232171580195427 -0.7591361311744909 -0.5992526631101388 0.25418217895995904
-0.0941130667924881 -0.42313697934150696 0.0509413406252861 -0.26321332909873896 -0.9601666642654796 -0.09380149368779188
-0.015789968892931938 0.3061896562576294 0.04062291607260704 0.0628721405488213 -0.42656538621078716 0.902268843100354
0.07559727132320404 0.11180420219898224 -0.1216999888420105 0.5677238336795029 0.7600449978980712 0.31626136318299974
-0.08536507934331894 0.3337364196777344 0.018263498321175575 -0.9015182714375976 -0.3321985121780551 0.27732463787203054
0.03507493436336517 0.004171226639300585 -0.03653086721897125 0.9192187537009952 0.39371991117429056 -0.004638360626140406
-0.07417906820774078 -0.06767551600933075 0.07216395437717438 -0.6237686571692967 0.02026862004461484 0.7813461751200292
-0.03077937476336956 0.2513998746871948 -0.025709770619869232 0.7834246322484316 0.6206065477163079 0.03306597220793589
-0.1153772622346878 0.18821799755096436 0.12410599738359451 0.3023383393833417 0.00950464787987972 0.9531532878858484
-0.05995848774909973 0.2017838954925537 0.086721271276474 0.34960082013630567 -0.07312696092558621 0.9340405313185345
0.017094895243644714 0.07949832081794739 0.00043651560554280877 0.9691757324916981 0.24565248848153978 -0.01879506456513272
0.01831078715622425 -0.1800416111946106 -0.04654121771454811 -0.1053445934207356 -0.5272110607615863 -0.8431791114867961
0.0030687812250107527 0.16671812534332275 -0.14693187177181244 0.10541914049577755 0.1375525865606141 0.9848685652144739
-0.02141793817281723 0.1136234924197197 0.0645047053694725 0.635266875233423 0.0601966382406156 0.7699430900889307
-0.08921238780021667 -0.18957775831222534 0.05667770653963089 -0.9878785169301583 0.10310588878899347 -0.11603969788353831
0.005540918093174696 0.3787464499473572 -0.0011369424173608422 0.7640477877738002 0.39928452812195375 -0.5067571840639171
0.007930770516395569 -0.17445655167102814 0.10331863909959793 0.4155428974787815 -0.07698031248114225 0.9063101741927234
0.04800443351268768 -0.17062954604625702 -0.07385598123073578 -0.37927631861015343 -0.5942130569194061 -0.7092674510563869
-0.011868497356772423 0.3837280571460724 -0.014123487286269665 0.5193577408006146 0.2888790959908349 -0.8042489695175244
-0.0015835175290703773 0.09711320698261261 -0.030948467552661896 0.5762669318175149 0.42569532313188174 -0.6976388142565396
-0.027395958080887794 0.012852555140852928 0.07372674345970154 0.37595997713180324 -0.030736807758182397 0.9261259872414177
-0.03083348460495472 0.09457693248987198 0.0725395455956459 0.41518198251008115 0.03422994419940255 0.9090941823150693
0.038319069892168045 -0.18630781769752502 -0.0006091307732276618 -0.028146767601907464 -0.7129247563058803 0.7006754250862275
0.050549015402793884 0.11033335328102112 -0.14605993032455444 -0.005686903918070533 -0.7078162285983253 -0.7063737294496946
-0.023000594228506088 0.2029527723789215 -0.07897235453128815 0.6372382813802228 -0.757878422317251 0.13981298126245176
-0.010545017197728157 0.15338222682476044 0.05187119543552399 0.8497759344541599 -0.07456333051131418 0.521844010184672
-0.09873193502426147 -0.06215125694870949 0.013618474826216698 -0.9565850425928774 -0.23606778851124052 -0.17092997254722564
-0.003962914925068617 -0.19028055667877197 0.059221383184194565 0.16334762074642128 -0.8907600600565602 -0.4241038436568535
0.03616991266608238 0.11597393453121185 -0.13813433051109314 -0.49488311258386003 -0.8625387576088847 -0.1054400137605842
-0.027892883867025375 -0.17112810909748077 -0.00758293317630887 -0.9669348763776033 -0.19444965634056155 -0.16500386660216998
-0.0070195188745856285 0.20213399827480316 -0.13921785354614258 0.8195696445040205 0.5627132791707143 -0.10797853144257513
-0.030938804149627686 -0.16086581349372864 -0.015900922939181328 -0.978286879541045 -0.2032703663161649 0.040446748887111666
0.03698471933603287 -0.047975193709135056 0.01558555569499731 0.7563399479614815 0.3197274218142852 0.5707225760889557
-0.07183054834604263 -0.05708092823624611 0.07406500726938248 -0.5334688495612633 0.028129635983695667 0.8453518262399432
-0.08000722527503967 -0.10143889486789703 0.06635191291570663 -0.8462921901531755 0.015361869323560966 0.5324974571363016
0.05846225470304489 0.11885445564985275 -0.1470375955104828 0.5625757832718442 -0.05423659287037718 -0.8249647750479314
-0.014291780069470406 0.20047175884246826 -0.04286561906337738 0.8839936389034736 -0.25728764214829325 -0.3903310333242375
0.00906566996127367 -0.40118107199668884 -0.043969981372356415 0.6432961094499299 0.724322439470063 0.2480466070050566
-0.12677936255931854 0.07304167002439499 0.1296180635690689 -0.6105820338937646 -0.761736046914373 0.21667435177569555
-0.11585143953561783 -0.295223593711853 0.03441956266760826 -0.6906019985773058 -0.15173434465199015 0.7071390020456105
-0.024150917306542397 0.1854119896888733 -0.1080951988697052 0.24228956156282275 -0.8510771585057786 0.46579334326225086
-0.13667672872543335 -0.4101810157299042 0.04361184686422348 -0.4490715249137448 -0.8932441495342787 0.021205066244345167
-0.10552849620580673 -0.284868985414505 0.045496437698602676 -0.47216130525443445 -0.2238972364572888 0.8526040870927243
-0.11171281337738037 -0.39358818531036377 -0.007354696746915579 0.9761293890607583 -0.17160458482960864 -0.13312881835774135
0.012589674443006516 -0.12261419743299484 -0.0778246819972992 -0.5192011973494671 -0.544474500835586 -0.6587697887811182
-0.009665043093264103 0.21004489064216614 0.013258092105388641 0.761565819894239 0.5893450719918348 0.26961062309885825
-0.0754849761724472 0.37993985414505005 -0.023740045726299286 -0.47608946170633465 0.3843767110199277 -0.7909446051890584
-0.030700277537107468 0.1128091961145401 0.07159992307424545 0.4876355366910719 0.021326372000302143 0.8727867833631048
0.019150596112012863 0.14832410216331482 -0.1371542364358902 -0.2853585388154996 0.19838719505832147 0.9376635991452237
-0.0965990200638771 -0.23217663168907166 0.044060371816158295 -0.8321699738447823 0.41615375941748634 0.366482173036926
-0.039281658828258514 0.00168472935911268 -0.07340624183416367 -0.4151123815936255 0.23820471777895733 -0.8780320171129955
-0.08493748307228088 0.02766561694443226 -0.019501354545354843 -0.7882259488912954 0.2622602183081756 -0.556704078831263
-0.09639173746109009 -0.037132054567337036 0.040891364216804504 -0.9269599147547313 -0.05661188582028188 0.37086441029272776
-0.10138294100761414 -0.04036621004343033 0.02607860416173935 -0.9727677004601282 -0.11171382498404109 0.20308378135377875
-0.002743375487625599 0.037706270813941956 0.055813051760196686 0.6930741101010125 0.019537148691467585 0.7206015388053908
-0.03975667059421539 0.2506168484687805 -0.07928111404180527 -0.21135733053466113 0.8541055973789135 -0.47521753687681983
-0.09011508524417877 0.3611675798892975 -0.01778617687523365 -0.7675384329161101 0.05530478736836728 -0.6386126638979388
-0.1073252335190773 0.13947191834449768 0.06135466694831848 -0.8565187913231411 -0.24966241461720262 0.45171256218734224
-0.05122744292020798 0.026918964460492134 0.10003931820392609 0.49778054926314497 0.5964217283119964 -0.6296790029631075
-0.09348632395267487 -0.41257724165916443 0.03433166816830635 -0.8099870114122911 -0.58384143782582 -0.05522876805492055
-0.13850557804107666 -0.4076032042503357 -0.011240040883421898 -0.3190661746782488 -0.9474395503064877 0.02356002315851657
0.02093258686363697 -0.10124198347330093 0.06025123968720436 0.5892497654810901 0.34202102060236855 0.7319879338804668
-0.05900978669524193 -0.14483436942100525 0.08170630782842636 -0.7347365906529412 -0.21716460582076497 0.6426520647554197
0.025242837145924568 0.024011852219700813 0.0074346051551401615 0.9566955574171362 0.06602481722358497 0.28350367533580106
-0.04839402809739113 0.07813563942909241 -0.04556850343942642 -0.3422117687861274 0.22212555699655215 -0.9129903297588873
-0.09685414284467697 0.027038097381591797 -0.0015220048371702433 -0.8967445017307674 0.2514571082576799 -0.36416839692966696
0.025674493983387947 -0.17649555206298828 0.023372603580355644 0.23287403647774346 -0.9641173563393163 0.12746531426176538
0.02184402570128441 -0.3856509327888489 -0.048712655901908875 0.1458915070187745 0.13253509470964014 -0.9803826379787116
-0.017762191593647003 0.22272475063800812 0.012878727167844772 0.8152893163175126 0.5061744678952218 0.28123075711862
-0.12436822801828384 0.08264071494340897 0.14030298590660095 -0.5114740353047988 -0.6134145321912412 0.6017615166373023
0.004343321081250906 -0.1807147115468979 0.03353612497448921 0.2116337738004525 -0.9646010238839045 -0.15734042871780338
-0.026718810200691223 -0.1383233517408371 0.10053116083145142 -0.21219734285590516 0.22441974812865478 0.9511088604017759
0.046388547867536545 -0.09006252139806747 0.02387196384370327 0.8342826825139065 0.19762692035088691 0.5146999184087994
-0.127666637301445 -0.41009607911109924 0.050011590123176575 0.018677387903230536 -0.935946186929615 -0.3516473949185841
0.11074057221412659 -0.12668010592460632 -0.03763481229543686 0.9606682447796343 0.27766774010565387 -0.004141204732416951
-0.0928901955485344 -0.3052476644515991 -0.00984722189605236 0.5161739931442738 -0.17313283024571335 -0.8388023795224978
0.004991461988538504 -0.08849985897541046 0.06655904650688171 0.5852693471190563 0.36237184163614145 0.7253595244511959
-0.09099132567644119 -0.24527598917484283 0.05540294200181961 -0.3954232950631726 0.15784328598371733 0.9048347444651127
-0.05924701690673828 0.004200780298560858 0.09720751643180847 -0.3308294136093255 -0.6741181613597588 -0.6603912504083076
-0.046897850930690765 0.19465960562229156 -0.09356946498155594 -0.8104644112480851 -0.5817805042735206 0.06840236068691653
-0.08602289855480194 -0.1185772716999054 0.014654228463768959 -0.906988866173788 -0.4065066158355546 -0.1101070747895495
-0.07049807906150818 -0.1360594928264618 0.07183195650577545 -0.7606801048389364 -0.21047309564448569 0.6140576960775361
0.0013678822433575988 -0.18309907615184784 0.006355980411171913 0.06855342423843465 -0.9880877922568616 0.13777860072647843
-0.06584534794092178 0.36990121006965637 0.0409909151494503 -0.4254363402183105 0.2321350498740952 0.8747098027583785
-0.06409909576177597 -0.11423509567975998 -0.010215544141829014 -0.4754434482302105 -0.3056130274911874 -0.824957092800976
-0.12232084572315216 0.19801263511180878 0.060903098434209824 -0.9658705030133092 -0.06386116539394084 0.2510297252584737
0.06912841647863388 -0.42260295152664185 -0.045561209321022034 -0.04764271208229023 0.6480666361080486 0.7600919728223962
-0.09519623965024948 -0.09314124286174774 0.02302684262394905 -0.9494704482370303 -0.3017751102656317 0.08624181554639615
-0.1454164832830429 0.11413908004760742 0.11742556840181351 -0.27082664482245505 -0.07448410517267884 -0.9597421771136441
-0.09355390071868896 0.3700239062309265 0.015056060627102852 -0.9450391307172287 0.10675033756021356 0.30903949075159515
-0.04014730080962181 -0.2122059017419815 0.04446124657988548 0.8433670196864944 -0.521017176371024 -0.13142744017702537
-0.03495445102453232 0.24423779547214508 0.02991296909749508 0.8579086301773012 0.35822091188474625 0.3683348484134611
0.09548861533403397 0.04902591183781624 -0.1054767295718193 -0.28889575576751636 -0.954631472318163 -0.07223568618883582
-0.10168115049600601 -0.413983017206192 0.017630845308303833 -0.8065414450971273 -0.02864481128861985 0.5904831683688172
-0.08740068972110748 0.2609950602054596 0.08581040799617767 -0.023049193836768036 0.8552301930049979 0.5177355035499392
0.060607101768255234 -0.16799436509609222 0.02456321381032467 0.45069460570262576 -0.03415604115279408 0.8920245160550934
0.031120261177420616 -0.25355762243270874 -0.05671985074877739 -0.4922135953623426 0.1459646429276442 -0.8581492291877221
-0.04153436794877052 -0.1323503851890564 -0.04281886667013168 -0.9173508503179746 -0.3661997640010776 -0.1560934023796147
-0.06609969586133957 -0.08422805368900299 0.07874806225299835 -0.5773008067121339 0.03975456191590313 0.8155632123731392
-0.007098529487848282 -0.07675965875387192 -0.08978044986724854 -0.19424055676265603 -0.2867890316046056 -0.9380952283536176
0.053488023579120636 -0.17655445635318756 -0.050967052578926086 0.2653639676488765 -0.5465516890513004 -0.7942689820638955
-0.09380974620580673 0.12339922040700912 0.07385923713445663 -0.6514464854116168 -0.2631120610893136 0.7116105114135017
0.021137136965990067 -0.31665295362472534 -0.01938825286924839 -0.6366349122487063 -0.11061778332903924 0.7631904706673505
-0.021359262987971306 0.21047301590442657 -0.14629094302654266 0.23939922088235488 0.9224087301772624 -0.3030678926143314
-0.10716218501329422 -0.31109675765037537 -0.013716618530452251 0.2047418808231927 0.027750510849007808 -0.9784225423530474
0.09622374176979065 -0.14286044239997864 -0.06413686275482178 0.5758435562549016 -0.45155388490478787 -0.681544780441536
-0.11141417175531387 -0.39616695046424866 -0.004958594683557749 0.9726228779899098 -0.21155270799012169 -0.09617790262150387
-0.03427882492542267 0.25470075011253357 -0.07276085764169693 0.03932135821115705 0.9157347761098105 -0.399854536815009
-0.0537240207195282 -0.12676282227039337 0.08892805874347687 -0.5818134617629407 0.015921366970983262 0.8131664071917866
-0.07931947708129883 0.3142593204975128 0.0024109473451972008 -0.8883843859179756 -0.2008090291228954 -0.4128545950814422
0.054113589227199554 -0.16987769305706024 0.02725799009203911 0.1567464335392832 -0.23173126422138826 0.9600683187956326
0.04605695232748985 -0.322946161031723 -0.016854261979460716 0.4656009007936966 -0.09825787683441684 0.8795232747460927
0.06535983830690384 -0.41105741262435913 -0.04239238053560257 0.5535695919522684 0.4146537094151658 -0.7222347320186439
-0.08805781602859497 -0.024296818301081657 -0.029176119714975357 -0.8582712372015864 -0.06749315237279213 -0.5087387913018245
0.01512907538563013 -0.27409014105796814 -0.04289518669247627 -0.8252016539158956 -0.03585727284857318 -0.5636989323728879
-0.09346001595258713 0.2460974007844925 -0.00853818841278553 -0.7904910401165272 0.56010571843095 -0.24780133106268887
-0.05683760717511177 -0.2043103724718094 0.07549882680177689 -0.5403967431732389 -0.48018225210951204 0.6909387561331274
-0.04090070351958275 -0.09297190606594086 0.09006217867136002 -0.15175221859926494 0.1707673632906892 0.973555222771131
-0.09355524927377701 -0.051767248660326004 0.0442875437438488 -0.9112381206573352 -0.05411766945170366 0.40830915409038293
-0.09768640995025635 0.04402655363082886 0.031760577112436295 -0.9964649130950047 0.01767939374929648 0.08212865521376858
-0.020684899762272835 0.3039950132369995 -0.013434753753244877 0.2527637760928934 -0.4182912147119609 -0.8724350595832643
0.09694866091012955 -0.16639961302280426 -0.04271002486348152 0.5325540528142425 -0.6817161868588005 -0.5016465104092939
0.023540057241916656 -0.13035047054290771 -0.081122986972332 -0.542807040870171 -0.5668823778965189 -0.619681277764753
-0.09793249517679214 0.06859225779771805 0.011050943285226822 -0.953507464265416 -0.08422717499784091 -0.28936015375655944
-0.030828285962343216 -0.16594989597797394 -0.04516611248254776 -0.8875500483530836 -0.3597930096399529 -0.2877566713087008
0.015509266406297684 -0.16388057172298431 0.0961335301399231 0.6808921722444494 0.13723378304173406 0.7194113834019374
-0.022170938551425934 0.23130300641059875 0.009939109906554222 0.8519103300584694 0.4813656159538358 0.20624241396243934
0.06590460985898972 -0.06967967748641968 -0.009328138083219528 0.7981854520240426 0.40489437797035044 0.4460499152170954
0.04865110665559769 -0.2595471441745758 -0.008415421470999718 0.3904885176996792 -0.0676083386363873 0.918121903720598
-0.03527345135807991 0.19474898278713226 -0.08354749530553818 -0.06431165779403987 -0.9640619317989052 0.2577762640895112
-0.060930654406547546 -0.21973051130771637 0.019882477819919586 0.32325576423109453 0.25734527883344 -0.9106476367692996
-0.09566108137369156 -0.09051177650690079 0.02133127488195896 -0.9494704482370302 -0.3017751102656319 0.08624181554639591
-0.04707712680101395 0.24156354367733002 -0.08558633178472519 -0.5838829734846753 0.5636869108721019 -0.5842411657750257
-0.1366787701845169 0.15380080044269562 0.13698121905326843 0.6205574482442744 0.05106330216978673 0.7824966406318125
-0.09296587109565735 -0.08891400694847107 0.03198075667023659 -0.7771067595615324 -0.38070015321891176 0.50117110609339
-0.09695564210414886 -0.0791345164179802 0.03075135126709938 -0.839479299038028 -0.2670074335669128 0.4732668770436316
0.036994513124227524 -0.1782287061214447 -0.05039629340171814 -0.14843985569770474 -0.5077359882472267 -0.8486281726875774
-0.0017924032872542739 0.12110156565904617 -0.0179891437292099 0.8229886303624249 0.17809577106284413 -0.5394178441836265
0.09742476791143417 -0.1725078821182251 -0.03786874935030937 0.5359511150531491 -0.7646544495417484 -0.3578546842913921
0.05465592443943024 -0.07844249159097672 0.010052560828626156 0.7944740769550606 0.20465239730503437 0.5717764749652674
0.0460512638092041 -0.3712036609649658 -0.03364110738039017 0.9172261732122987 0.007598621549460366 -0.39829437370476417
0.03625693544745445 -0.09202739596366882 -0.09835212677717209 0.01933546246276363 0.05319096368471068 -0.9983971460664554
0.07690880447626114 -0.11590027064085007 0.0023936789948493242 0.6076290915197984 0.31914109301019483 0.7272797604024759
0.09114030003547668 -0.1675081104040146 -0.010453922674059868 0.622669099796803 -0.7117206639993789 0.32517209073738534
-0.09857230633497238 0.08454374969005585 0.11702770739793777 0.32274470989737464 0.3868223143195579 -0.8638312042162638
0.023923220112919807 -0.39663562178611755 -0.04938806593418121 0.10373910478986845 -0.051948559261877435 -0.9932469709634215
-0.009005269967019558 0.22197186946868896 -0.0649147629737854 0.9998609848275262 -0.011024497270927934 0.012508856048929203
-0.02592732384800911 -0.08790677785873413 -0.08513908088207245 -0.28821425932224487 -0.16665664485623954 -0.9429518033540162
-0.09791526198387146 -0.247773677110672 0.05061392858624458 -0.5483898373711655 0.206418069121393 0.8103457083296132
-0.11303824931383133 0.14219291508197784 0.03933434560894966 -0.9799721856190983 -0.1991316241876716 -0.0010543535021802462
0.07786010205745697 -0.10093679279088974 -0.07709095627069473 0.6277313753035602 0.27736291156352255 -0.727339766373671
-0.05475831404328346 -0.15032458305358887 0.08479283004999161 -0.7429726558596293 -0.19071715706458384 0.6415750919776201
0.09048856794834137 -0.13321375846862793 -0.07452640682458878 0.5737243182576339 -0.19812109419642576 -0.7947253856988742
-0.07462938129901886 -0.20109546184539795 0.04644279181957245 -0.801149288243342 0.4195727805082199 -0.42675344146683575
-0.04276031255722046 0.21989759802818298 -0.10522108525037766 -0.7784797448459492 0.4160048995750442 -0.47000979818950944
-0.1025296151638031 -0.41825029253959656 0.06462478637695312 -0.23664627178696107 -0.9388679753245911 -0.2500509287309983
0.09277499467134476 -0.16908127069473267 -0.019891805946826935 0.5093225383111329 -0.7958234002860916 0.32749911072457577
-0.0021067229099571705 0.15894272923469543 -0.149840846657753 -0.29175722501310375 -0.41056352737413 0.8638954286502304
-0.06591861695051193 0.058369800448417664 -0.03564536198973656 -0.7217275443310543 -0.021452852751508603 -0.6918447274227707
0.015384029597043991 -0.2454078197479248 -0.03144069015979767 -0.9884148583018816 0.15176755150270316 0.0016365203773837426
-0.016668621450662613 0.176827073097229 -0.18954214453697205 -0.10094500777324301 0.36764663753861904 -0.9244706892661375
-0.012028471566736698 0.043862443417310715 -0.06516139209270477 0.07781378731875467 0.4312945820853287 -0.8988492632065476
-0.12124893069267273 -0.28317248821258545 0.016131166368722916 -0.9830727284811334 0.18315301479013407 0.004794130780929961
-0.07688505202531815 -0.06867098063230515 -0.01941262185573578 -0.7822834422461908 -0.34217597725011756 -0.5205268644175609
-0.02589205466210842 -0.061405207961797714 0.080788254737854 0.4616758069899038 0.20011197835813255 0.8641820672507707
0.002167955506592989 0.29667356610298157 0.0020869991276413202 0.5069679609909453 -0.5971439853326568 -0.6216128596720913
-0.08488963544368744 0.05519518256187439 0.06381305307149887 -0.6966923249164202 -0.09117585645780343 0.7115523646238127
-0.1295054852962494 -0.3334662914276123 -0.0143497996032238 -0.5749318627059061 0.48960719797557095 -0.655544159409591
-0.09687462449073792 -0.4223794639110565 0.0368242971599102 -0.35127527543776127 -0.9168900166341344 -0.1895214453901773
0.03878074139356613 -0.009939411655068398 -0.06168212741613388 0.817047866215537 0.4261924714431137 -0.38832043675017747
-0.05823363736271858 0.27315059304237366 -0.026831014081835747 0.0608330175176773 0.8018906883180652 -0.5943657695127419
-0.02894139103591442 0.19230416417121887 -0.08992301672697067 0.2354033331748432 -0.8635711701333931 0.4459036945850708
-0.07466401904821396 -0.1066693365573883 -0.0052378857508301735 -0.6548070261605262 -0.3226637140882798 -0.6834587669359176
-0.10032392293214798 0.11658632010221481 0.0023729426320642233 -0.8864299229922706 -0.0913539402008618 -0.4537581395784481
-0.005502001382410526 -0.18303132057189941 0.01797177456319332 0.2113758571295807 -0.977299343830136 -0.014361043552641197
-0.07878401130437851 -0.269204318523407 0.052138153463602066 0.4376203979892214 -0.320110576395579 0.8402485383167565
0.0706944391131401 -0.17699399590492249 -0.045376017689704895 0.30824818941366433 -0.8364904346611332 -0.4530637995289695
0.03438425809144974 -0.0921260192990303 0.04449095204472542 0.6813534202425748 0.3464756227931113 0.6447574424028552
-0.0919465497136116 0.06669461727142334 -0.005997717846184969 -0.8401268616420765 -0.062390715155569244 -0.5387896203619851
-0.07417251914739609 -0.2826782464981079 0.001557535957545042 0.8464190635280143 -0.15388834740941662 -0.5097971610630625
0.023206694051623344 0.049198754131793976 0.006051278207451105 0.9670954476291889 0.157302984949234 0.19995541028179253
-0.06036368012428284 -0.22004033625125885 0.019811410456895828 0.32325576423109453 0.25734527883343994 -0.9106476367692995
0.020949475467205048 -0.07177816331386566 0.04409179463982582 0.5873873219302103 0.3818649521532054 0.7135511841155378
0.08382610231637955 0.061191096901893616 -0.11602409183979034 -0.5357568737880501 -0.5075855593560682 -0.6747751270771937
0.01223572064191103 0.07605809718370438 0.026791218668222427 0.9154833516205804 0.18641339506425508 0.3565673555531505
0.027269471436738968 -0.4094240665435791 -0.027529502287507057 0.5784500917157515 0.7602114548119645 -0.29576009765807715
-0.07994464039802551 -0.2518686354160309 0.003619892755523324 0.16441635092877624 0.40686071736729607 -0.8985719894424903
-0.0346502959728241 0.27640384435653687 -0.011057136580348015 0.807503368706137 0.19892879055247165 -0.5553068033236865
-0.03426098823547363 0.3919670581817627 0.037912335246801376 0.018203115538677962 0.7255251373597396 0.6879548834362736
-0.08260823041200638 -0.01320231705904007 0.06319018453359604 -0.7481280022883028 -0.028466746196166633 0.6629435394911971
-0.11010614782571793 -0.3627763092517853 -0.008475889451801777 0.9804740447979746 -0.14288884700720067 -0.13510523631026433
0.005316293332725763 0.3827826976776123 0.02775420807301998 0.7941106665628427 0.4550531153310668 0.4028832479498355
0.021843349561095238 -0.20482392609119415 -0.03646313026547432 -0.8888645744615542 0.01587152180972402 -0.4578950349837001
0.018011948093771935 -0.39566126465797424 -0.01709931716322899 0.4978714518301892 0.38586773316268336 -0.7766788975866358
-0.10943832993507385 0.1890026032924652 0.12126357853412628 0.4490456626678471 -0.04335859414392704 0.8924561754803741
-0.07100895792245865 -0.12388523668050766 0.03174786642193794 -0.9399908450017807 -0.2529121340396711 0.22902546532719456
-0.13085009157657623 -0.36080601811408997 -0.03039356879889965 -0.13677147128022052 0.3367664001902238 -0.9316018228550017
-0.01806318573653698 -0.17618677020072937 0.10556738078594208 -0.20302921052671247 -0.12590363072891828 0.9710444971483934
0.002527826465666294 -0.18449531495571136 -0.04079780355095863 0.24271102195929956 -0.9507733127040695 -0.19266932207593926
0.112922303378582 0.05678177252411842 -0.10246455669403076 -0.25155519076668936 -0.8655810136924789 -0.4330005712853452
0.0064802011474967 0.19235418736934662 0.010552621446549892 0.8587793565074339 0.43801559180802296 0.26578253924918593
-0.05793856084346771 -0.016957983374595642 0.07699362933635712 -0.11886137820759708 0.024806675196411384 0.9926009276825659
-0.0788799375295639 -0.04625881463289261 -0.03468632698059082 -0.8270436577068967 -0.2850456869281018 -0.48450773431441135
0.07144907861948013 -0.08220037072896957 -0.009729125536978245 0.7816020955863542 0.3492616830417853 0.516831153215283
-0.1365567296743393 -0.37991756200790405 -0.037374790757894516 0.18549529339962875 0.22987518463379236 -0.9553789277643535
-0.05321873724460602 -0.20576505362987518 0.07072079181671143 -0.6367228110301989 -0.4891273373643614 0.5961027677814053
-0.1478051245212555 0.09630638360977173 0.13688242435455322 -0.6508592052073404 -0.6922797625856356 0.3116585075226497
-0.05454523488879204 0.1523216813802719 0.08727817237377167 -0.014132667111873711 -0.2064851870712877 0.9783476556114602
0.030470583587884903 -0.13019543886184692 0.06520003080368042 0.631105064589946 0.2814051121364823 0.7228537613600513
0.016994817182421684 -0.29371899366378784 -0.01903475821018219 -0.8572657763012701 -0.17954693313045617 0.4825539219465823
-0.011100188829004765 -0.12260770797729492 -0.07204927504062653 0.17561687213821442 -0.37603332298633596 -0.9098118784805153
0.0873369425535202 -0.08491740375757217 -0.041493311524391174 0.8428198919598445 0.49835653318617845 0.20321268549834537
-0.08526794612407684 0.09785086661577225 -0.016634436324238777 -0.8007001279237911 -0.11025969757141146 -0.5888311338866905
0.02979939430952072 -0.1436099112033844 -0.07102514803409576 -0.5351917640229663 -0.6240904401428086 -0.5692810362591934
0.02188875712454319 0.16475649178028107 -0.15013282001018524 0.4280350842675062 0.7295904710704294 0.5333701446081679
-0.05732571706175804 -0.024391109123826027 -0.0673028752207756 -0.6926601132539157 0.0192213159232171 -0.7210079808998319
0.09793361276388168 0.09600917994976044 -0.12383155524730682 0.41034318176980794 0.46874333986804373 -0.782239192641472
-0.06656643748283386 0.03202410414814949 0.12402280420064926 0.5301029321505909 -0.18452433028522183 0.8276120183142197
-0.07449430972337723 -0.11282568424940109 0.038401465862989426 -0.9604096542128631 -0.2520454974489304 -0.11868598615864456
-0.1570449322462082 0.17710968852043152 0.11046280711889267 -0.7638083318318636 0.48014697471915146 -0.4313417611271514
0.07341290265321732 -0.06576498597860336 -0.06372388452291489 0.7815023073568677 0.5423068714615967 -0.3084759322239375
0.08750317990779877 -0.15024334192276 0.0034213068429380655 0.6565984358046935 0.041103847709479904 0.7531194910519219
0.010100161656737328 0.3368771970272064 0.018747707828879356 0.964520226984899 0.16517385745355967 0.20595710366702585
-0.1140688881278038 -0.3912728428840637 0.014232353307306767 -0.3964987427587912 -0.7332906405950951 -0.5523346661276416
0.022981036454439163 -0.18105889856815338 0.006270410493016243 -0.0021109007906587145 -0.9385769332046632 0.3450635949415432
0.0041249287314713 0.11412110179662704 -0.01094060204923153 0.8809678511089516 0.20922813044937605 -0.42440456493908635
-0.013074164278805256 -0.09551727771759033 -0.08194424211978912 -0.045512163688439855 -0.3305458479817097 -0.9426919355433404
0.07841852307319641 -0.1472196727991104 -0.07562905550003052 0.7427377835936336 -0.3419926048723109 -0.5756575744616484
-0.06437387317419052 0.3175107538700104 -0.014818909578025341 -0.45353802877623245 -0.24872930488760478 -0.8558253264211677
-0.0359979011118412 0.2584128975868225 -0.06183978170156479 0.13721254069043481 0.9652230527198108 -0.22252455409577854
-0.09314382821321487 0.22966966032981873 -0.02448791265487671 -0.8841422288400784 0.23302035644841704 -0.40496176691429897
-0.006209020037204027 0.1047128215432167 -0.028994064778089523 0.5844073657297331 0.37834349862621236 -0.7178608694782794
-0.05375351756811142 0.11286377161741257 0.07969750463962555 0.17831537396173772 -0.12281863616613584 0.9762782441595101
-0.04794219508767128 0.4008811116218567 0.018376531079411507 -0.21040594483060757 0.9414070517267967 0.2635945775978703
-0.023490168154239655 0.3977496922016144 0.026813512668013573 0.15162277952836645 0.8944408180830987 0.42069722565632583
0.009424075484275818 -0.06407976895570755 0.05010249838232994 0.6231587809789462 0.333912802796596 0.7072307783300691
0.05716054514050484 0.09693519026041031 -0.1156216710805893 -0.9007013024897246 -0.3599497461622957 0.24325571715997277
-0.06617161631584167 -0.23657742142677307 0.06037190183997154 0.32040646289946384 -0.36815078293056486 0.8728142411532174
-0.05005916953086853 0.0011769755510613322 0.11686380952596664 0.6103455117734861 -0.5062205509388571 0.6092775312327883
-0.0772460401058197 -0.23474200069904327 0.012490369379520416 -0.042042204290699596 0.4680458891728281 -0.8827035168655419
-0.06646031886339188 -0.26337170600891113 0.04156995192170143 0.8288146274332415 -0.41134729267565545 0.37928843662983724
-0.04055502265691757 0.2637907564640045 -0.022395730018615723 0.6609742909286461 0.6467852554551203 -0.38050206314450963
-0.07543221116065979 -0.14342546463012695 0.02627517469227314 -0.9911945794797071 -0.04767164195084542 0.12353428740134137
-0.06375602632761002 -0.005379249341785908 0.12073107808828354 -0.0672688509557242 -0.7577475745437833 0.649071271097489
-0.00847962312400341 0.3333252966403961 0.04314811900258064 0.462703183617571 0.0353460464585297 0.8858083431927675
0.004848174285143614 0.13874614238739014 0.018808839842677116 0.9635119268270852 0.04595778440478347 0.2636904414546746
0.027112800627946854 0.018579814583063126 0.0009367230231873691 0.9767887457017165 0.10633166916563806 0.1859497846272401
0.06253709644079208 0.09877176582813263 -0.13635468482971191 0.2676898972611821 -0.5964925911225006 -0.7566628758174033
-0.07576953619718552 0.02108391746878624 -0.03314227983355522 -0.7625840952356485 0.20523329471855534 -0.6134694714756344
-0.02943401038646698 0.20486217737197876 0.061718184500932693 0.7636872784122198 0.5171103744701938 0.3864952799280125
-0.017821960151195526 0.06031235679984093 -0.057970862835645676 0.013103537577621064 0.4694260445511173 -0.882874558473651
-0.08216691017150879 -0.12666112184524536 0.059635233134031296 -0.9912388407775067 -0.09670570135682492 -0.08996425878730796
-0.0726342424750328 0.2501363456249237 0.09289771318435669 0.47022101036092934 0.557089300426339 0.6845025294077729
-0.00696431752294302 0.011731786653399467 -0.07908514887094498 0.014585264286773598 0.32917168420991466 -0.9441574404621791
-0.09648735076189041 0.2318323850631714 -0.015427921898663044 -0.8725513613484439 0.3095885999839217 -0.37790080784376817
0.02547597698867321 0.14654548466205597 -0.1349305957555771 -0.2767572727255884 0.2503899452860415 0.9277447317517612
-0.11787045001983643 0.16282083094120026 0.04052475094795227 -0.9535803741533178 -0.29117463762766627 -0.07682317639889591
-0.07150459289550781 0.14424513280391693 -0.03861311078071594 -0.5789502374938004 -0.25915195853865763 -0.7730827154266547
-0.04501966014504433 0.30910953879356384 0.039377178996801376 -0.09425327991186357 -0.2755183116884468 0.9566639844533732
0.061450157314538956 -0.2876112759113312 -0.02245674654841423 0.969050660984339 -0.19772370426139138 0.14780444248725885
-0.01531958021223545 -0.10546527802944183 -0.07952375710010529 0.06784054411686764 -0.2883829123047247 -0.9551088715243791
-0.05613552778959274 -0.23997952044010162 0.044773247092962265 0.8061054634448235 -0.45246698966547233 0.3814021566109343
0.0033976337872445583 0.17999720573425293 0.026237748563289642 0.9303307184661745 0.09027331524084552 0.3554370307574021
0.05764850974082947 -0.16644085943698883 0.02480391226708889 0.3049834852476287 -0.04491330665207079 0.9512979914894105
0.0008574860985390842 0.1450708508491516 0.029001425951719284 0.9277987271739399 0.04551559442034248 0.37029427826929784
-0.10878077149391174 -0.26900744438171387 0.04527449235320091 -0.6554704496999395 -0.017624930891006106 0.7550151332133987
0.028396474197506905 0.036758773028850555 -0.016540732234716415 0.9863268198345265 0.16479826730359917 -0.000967248076257618
-0.048570260405540466 0.20976360142230988 -0.09962083399295807 -0.9718995600950427 0.045939839465297054 -0.23086960873394585
0.03931998834013939 -0.07955214381217957 -0.09563116729259491 0.18575924330119487 0.16265883621180022 -0.9690384958970363
0.039564356207847595 -0.008947886526584625 -0.020317841321229935 0.9209994656002845 0.34151700487511 0.18741963543109516
-0.05129513889551163 0.04328659176826477 0.07642178237438202 -0.056024380707356505 -0.013156560042743407 0.9983427135479073
-0.09070121496915817 -0.050598662346601486 0.05050291866064072 -0.8868563284813001 -0.05308408402385825 0.45898576519976786
-0.011364275589585304 0.03895803540945053 -0.06775308400392532 0.02866420626784646 0.43480716059471175 -0.9000672732493938
0.06663424521684647 -0.14825187623500824 0.016851406544446945 0.4794761191765626 0.18312439754898885 0.858235460792493
-0.09573578834533691 0.07065451890230179 0.048866450786590576 -0.9194471203675926 -0.106715832352047 0.37845570939431167
-0.019573263823986053 -0.20208075642585754 0.09917700290679932 -0.06785755437568482 -0.6674411877510563 0.7415643014652271
0.11325658112764359 -0.13119305670261383 -0.03875565901398659 0.9606682447796343 0.2776677401056541 -0.004141204732416953
-0.0669400691986084 0.1483909636735916 -0.043993063271045685 -0.48668221772273823 -0.24387770753195998 -0.8388468768025742
-0.09292799234390259 0.3451403081417084 0.007848775945603848 -0.9565411235378785 -0.19172244101841004 0.21970795295308604
0.10093726962804794 0.07705866545438766 -0.1211332455277443 0.033529527008837164 -0.41256373365505605 -0.9103114502691723
-0.11710269004106522 -0.27060097455978394 0.011375721544027328 -0.8516094490041537 0.3999358626495884 -0.33884015720332106
0.030919073149561882 -0.18919163942337036 -0.0033937564585357904 -0.2288915149856982 -0.5723845555696652 0.7873910051003051
-0.010041456669569016 0.1739853322505951 0.056504447013139725 0.9086108472626943 0.06241086056277144 0.41295425015415815
0.0016362200258299708 0.3300768733024597 0.036617107689380646 0.7224018606224184 -0.04727118368497566 0.6898557725802469
-0.033234912902116776 -0.015257916413247585 0.07551274448633194 0.27778891528188004 0.09271986273990189 0.9561570716153337
-0.05642957240343094 0.22702695429325104 0.08498706668615341 0.7634338299832402 0.13838351581035802 0.6308873035567332
-0.022318189963698387 0.39591437578201294 0.030066246166825294 0.15993382051876626 0.8890179740017412 0.42903171789054284
-0.042272116988897324 0.3537352979183197 0.047996874898672104 -0.0879384710701665 -0.007541700704574092 0.9960973587236963
-0.015474500134587288 0.17717069387435913 -0.12497277557849884 0.35327483581800245 -0.7590521307199438 0.5468425305581824
0.06943867355585098 -0.40520980954170227 -0.0217520110309124 0.6549872799223271 0.7537926259423132 0.05280473667146738
-0.0709129199385643 -0.10998307913541794 -0.007523240987211466 -0.5539303702134039 -0.2946097427628559 -0.7786952192125269
-0.12302128225564957 -0.3415223956108093 0.01625703275203705 -0.5318210930266183 -0.2557105709544355 0.8073279562322424
-0.07866766303777695 -0.06733158975839615 -0.0181257463991642 -0.7937159909961408 -0.30467494048617816 -0.5264865679927248
0.02605428360402584 -0.17714056372642517 0.017991632223129272 0.20003561608792358 -0.9640926964314335 0.17467405355087226
-0.011767802760004997 -0.0857088640332222 -0.08559515327215195 -0.17311372170870457 -0.31974774725330934 -0.9315540872555897
-0.13327910006046295 -0.34786197543144226 -0.021654145792126656 -0.5688492951390607 0.5303025337979661 -0.6286411552445886
0.02265896089375019 0.03537299856543541 0.014570789411664009 0.9473977309494175 0.08223559855847117 0.30931350717617423
0.0745396763086319 -0.14906176924705505 0.011359253898262978 0.5583099367218632 0.1359004592407652 0.8184259769434119
0.016222573816776276 -0.3249758183956146 -0.026124849915504456 -0.9699799729936113 0.23816502036908027 0.049155620878071966
-0.11321105808019638 0.1430821716785431 0.0379655659198761 -0.9784802736635413 -0.1986160806772135 -0.055928584353121355
-0.16303834319114685 0.1159481480717659 0.1334679126739502 -0.8710899493974629 -0.48830584926565096 -0.052532824326100916
-0.1244255006313324 -0.41469380259513855 0.0129448426887393 -0.15220129271502053 -0.9785468579507544 -0.13885536824546194
-0.08680691570043564 0.09320942312479019 0.06668385118246078 -0.7267706815013082 -0.1770762216787523 0.6636628573501018
-0.08190003782510757 0.32095837593078613 0.011620547622442245 -0.923244832857024 -0.36678465011128303 0.1144027929971541
-0.09673113375902176 -0.2540454864501953 0.0025007426738739014 -0.1318450362106089 0.5185934142699025 -0.844794505842994
0.03745494782924652 -0.00869508646428585 -0.009938987903296947 0.8995319782589309 0.3338988325859903 0.28169804700651885
-0.12529729306697845 0.193675696849823 0.047760993242263794 -0.9876672541493754 -0.07502523131117034 0.13742128564286765
0.038762301206588745 -0.3116772472858429 -0.012674049474298954 0.013748533196023599 -0.19351407788417363 0.981001161821736
0.004764941520988941 -0.3707588315010071 -0.030710380524396896 -0.9282797986841055 0.3708331806355372 -0.027917154130168546
-0.07062476128339767 0.306205689907074 -0.00873418990522623 -0.6665157720832066 -0.12873786204603585 -0.7342910107308567
-0.06356994807720184 -0.08860710263252258 -0.025483423843979836 -0.7895986104884175 -0.5050944985612607 -0.34844451758911194
-0.04341089725494385 0.22126814723014832 0.06822896003723145 0.7477503970641467 0.45511812236527677 0.48346337853566135
-0.07122534513473511 0.2778906226158142 -0.014089073054492474 -0.5712827966956361 0.43015894156688417 -0.698998749061592
0.030761510133743286 -0.08130772411823273 0.042186494916677475 0.6480598122742668 0.37497331743013185 0.6628827128010532
0.08315403759479523 -0.16787120699882507 0.006068478338420391 0.5760802874591865 -0.6512354643075905 0.493987724978079
0.013782561756670475 -0.1329478621482849 -0.06878137588500977 -0.2966139007930887 -0.5823657406284272 -0.7568819841947696
-0.11215092241764069 0.24724066257476807 0.07353603839874268 -0.8171173200304507 0.5501266060648505 0.17227885130166964
0.006879763677716255 -0.0521562434732914 0.04786314815282822 0.6657188309366164 0.2601671073790222 0.6993793780019661
-0.03491039201617241 -0.14352601766586304 -0.04891984164714813 -0.9092849852959207 -0.32491569012316407 -0.2600588583901449
-0.16367831826210022 0.12492521107196808 0.1265134960412979 -0.5367904293691724 -0.38491171042160305 -0.7507989145689912
-0.11292514204978943 0.1677897572517395 0.11246336996555328 0.8132183564088179 -0.58178910278293 0.01404794229681093
-0.047181956470012665 -0.20464399456977844 0.0715852752327919 0.002414947560829092 -0.784533927010687 0.6200811925848649
0.0292041152715683 0.020112667232751846 -0.013974505476653576 0.9842846085489353 0.13835396287266855 0.10973600289375128
0.034128472208976746 -0.041967879980802536 0.015474732965230942 0.7567194255227558 0.28802614723120584 0.5868702152500654
-0.08825044333934784 0.35747936367988586 0.022517506033182144 -0.839453516613277 -0.021668702231258958 0.5429993193266596
-0.10877474397420883 -0.26548680663108826 0.04505181312561035 -0.6693981852202895 0.01346581967400617 0.7427817588796121
0.00888831913471222 -0.18470606207847595 -0.008958282880485058 -0.3826705553209823 -0.9118086285646917 0.14889013051679192
-0.012872171588242054 0.1001320406794548 0.057797037065029144 0.6997281099854484 0.08350266029732455 0.7095124225969985
0.011389262974262238 0.0665421113371849 0.03321990370750427 0.8768973016373446 0.16121916199824177 0.452834963519524
-0.12277063727378845 0.15797972679138184 0.12353789806365967 0.9151122616461287 -0.07253037925379123 0.39662185097421004
0.040930069983005524 -0.36380714178085327 -0.038822341710329056 0.7318476384150493 -0.049065728747242826 -0.6796996310200686
-0.14757147431373596 0.18718589842319489 0.12666462361812592 -0.2928039358498566 0.7235455064881237 0.6250981964393095
-0.04329371452331543 0.22127126157283783 -0.10328786820173264 -0.7715664830391592 0.37110466704124173 -0.5166879990388707
0.008219585753977299 0.18469834327697754 0.013895591720938683 0.926097553583962 0.17890434211614678 0.3321694712308605
-0.06384497880935669 0.17736387252807617 -0.05634038522839546 -0.21223960167348072 -0.41585919777602154 -0.8843163908390289
-0.0034732266794890165 -0.06240816414356232 0.06156516820192337 0.6539878554172537 0.27144043587368566 0.7061302817040529
-0.12539754807949066 0.19129961729049683 0.045393940061330795 -0.9895764093485458 -0.1189545237003693 0.0811686599129095
-0.14763198792934418 0.19159814715385437 0.10823775827884674 -0.8481563539887762 0.4606646329894595 -0.2615700577305292
-0.053286317735910416 0.38444727659225464 0.0416032113134861 -0.2666834316369145 0.49378345904548276 0.8276822112764278
-0.022026214748620987 0.17861884832382202 -0.12265326082706451 0.0362190479328204 -0.8938116705732095 0.4469774917308126
-0.08999387919902802 -0.05910821259021759 0.05079162120819092 -0.9058592833387988 -0.13006122588831193 0.40311665347557535
-0.050940580666065216 0.15519271790981293 -0.048956919461488724 -0.14365176923517178 -0.20054937997991223 -0.969094482176675
-0.14164960384368896 0.08778781443834305 0.12890087068080902 -0.7596430248483456 -0.6262025910492434 -0.17553572218346378
0.056952204555273056 -0.06247520074248314 -0.0005046950536780059 0.7717863541633962 0.3874965007515393 0.5041748560097823
0.023838378489017487 -0.22989381849765778 -0.014387262053787708 -0.7766726676574511 0.1250493058156672 0.617367182824677
-0.12478318810462952 -0.3370024561882019 0.01562462653964758 -0.6554705833080182 -0.20163942638824123 0.7278048200882344
-0.0776883140206337 0.3039610683917999 0.002177975606173277 -0.8753928265164805 -0.145432420718507 -0.4610171474982708
-0.06387711316347122 0.051405999809503555 -0.03472248092293739 -0.7445198849207051 0.18719024959417238 -0.6408197495509418
-0.07228554040193558 0.3533404469490051 0.03876367583870888 -0.5463306685262412 -0.0003664134330206067 0.8375694994260874
-0.014776701107621193 0.14128436148166656 0.05750366672873497 0.8263714717569729 -0.044219865041078756 0.5613864927142114
-0.11492741107940674 0.2388242781162262 0.035935353487730026 -0.90791300397455 0.3817378231071634 -0.17311906776352742
-0.11207785457372665 0.1585921049118042 0.01790332980453968 -0.9121287434983494 -0.20030316573721602 -0.3576308111443584
-0.11083973199129105 -0.25486019253730774 0.015814654529094696 -0.7629621489279271 0.46059383397641845 -0.4535880062415486
-0.08631736785173416 0.18762946128845215 -0.04250631481409073 -0.7924498134799874 -0.2593873217083608 -0.5520339758135332
-0.03613357990980148 -0.13214674592018127 -0.0102456109598279 -0.8522268307533849 -0.4456488060912794 -0.2740557800402296
-0.08551663905382156 0.13411228358745575 -0.023174354806542397 -0.7778062926815011 -0.21432140337976088 -0.5908330619713059
-0.07280593365430832 0.08599851280450821 -0.028055213391780853 -0.6779869076296099 -0.04321463896437188 -0.7338025947501262
0.008316087536513805 0.3836536109447479 0.015573595650494099 0.8732017633859321 0.4847617640274399 0.05024651785649713
-0.09077419340610504 0.26585495471954346 0.01806422509253025 -0.785799640888677 0.4156564783781305 -0.45798320532691716
-0.1143558993935585 -0.3374410569667816 0.021998152136802673 -0.02940354012680333 -0.41566538560696537 0.9090421987103923
-0.00880715437233448 0.17682379484176636 0.05284979194402695 0.9239491343134943 0.0819537497897746 0.3736329483553874
-0.07409684360027313 0.13489870727062225 0.08218136429786682 -0.19009136008202682 -0.0924200899964442 0.9774066716506566
-0.08992460370063782 -0.4181935489177704 0.04214893653988838 -0.5869138628177147 -0.79768373968657 -0.13868225939909282
-0.10586010664701462 0.17507602274417877 0.07236666232347488 -0.6685453182021823 -0.45914739357891626 0.5850049815853114
-0.024816060438752174 -0.20157067477703094 0.08779947459697723 -0.12222927941985522 -0.7692238282769824 0.6271799624217967
-0.023167289793491364 -0.02175626903772354 -0.08506717532873154 -0.34505572312155486 0.14520017506515756 -0.9272828355480913
-0.0930226519703865 0.022574925795197487 0.05206188187003136 -0.8748762647229261 0.06271820260184208 0.4802686211765817
-0.042830247431993484 -0.13488253951072693 -0.030425570905208588 -0.9417418208222772 -0.3276584095194762 0.07590987804962805
-0.06824056804180145 0.12200155854225159 0.08178135007619858 -0.11048794521020613 -0.16488957880258204 0.9801039948727551
0.0465116873383522 -0.15003424882888794 0.028942877426743507 0.7260982262271328 0.07335895938965706 0.6836664603058119
-0.023722060024738312 0.10636691004037857 0.06714898347854614 0.6238923641331859 0.058248205501106945 0.7793365540844374
-0.015476050786674023 -0.17865552008152008 0.10524368286132812 -0.10652656502692902 -0.1351562460146701 0.9850811540714732
-0.000987418694421649 0.14446225762367249 0.033354997634887695 0.9147319333885142 0.07198690622564417 0.39759700121023456
-0.05835320055484772 0.23343633115291595 0.08386140316724777 0.8176234503061574 0.2424317234561005 0.5222248107583165
