ply
format ascii 1.0
comment VCGLIB generated
element vertex 393
property float x
property float y
property float z
property float nx
property float ny
property float nz
element face 0
property list uchar int vertex_indices
end_header
0.06924057006835938 -0.2456885278224945 -0.015925832092761993 0.8201272494763614 -0.1220408165265774 0.5590146096193411
-0.1317628175020218 -0.30361565947532654 0.018316427245736122 -0.8936813460078556 0.03158791007069437 0.44758893611767614
-0.002484228229150176 -0.010646487586200237 -0.0809132382273674 0.3255493844012342 0.2562078292722631 -0.9101511668594248
-0.0490872897207737 0.23746193945407867 0.05833497643470764 0.7828001430166144 0.4544088168862588 0.4251312305973282
0.05131317675113678 -0.3824123442173004 -0.011161931790411472 0.6915489874938037 0.31057937299840366 0.6521506351788776
0.017392383888363838 -0.1888275146484375 -0.02792487107217312 -0.8294701338978797 -0.522110710042796 -0.19844319950565428
0.033044807612895966 -0.016725173220038414 -0.04799054563045502 0.8998690245057692 0.4355467214007936 0.02312557484809486
0.03411833196878433 0.07513943314552307 -0.09920945018529892 -0.7637717506498035 -0.39775496996911014 -0.5083735799333072
-0.11256463825702667 0.17832238972187042 0.10320983827114105 0.38110889088453415 -0.7716743158267726 -0.5091903019324335
-0.011903277598321438 0.1734153926372528 -0.13465866446495056 0.5890184833612101 -0.4555851783169192 0.6674573930647566
-0.10808885842561722 0.08236384391784668 0.026340123265981674 -0.9887427030387369 -0.14948446257788064 -0.006500971885379719
0.007213067729026079 -0.3649871051311493 -0.022767921909689903 -0.8712367868854617 0.377552767302249 0.31368833111850136
0.02279656194150448 -0.010045506060123444 -0.06433968991041183 0.7544281780507138 0.43914526149330124 -0.4878417401894395
0.08589968085289001 -0.09696047008037567 -0.0692608654499054 0.7601449193599257 0.49895358153743674 -0.41620310551731426
-0.12366236001253128 0.1951417624950409 0.08780870586633682 -0.38758585384293165 -0.3418396799893576 -0.8561091280237697
0.062389954924583435 -0.05889473110437393 -0.04800207540392876 0.7730080812248673 0.630947950981304 -0.06605444355638057
-0.10380254685878754 0.07478386908769608 0.01202723290771246 -0.9613023482452552 -0.046518845784510425 -0.271539669744653
-0.0825914591550827 -0.10258019715547562 0.07412468641996384 -0.6736360011378127 -0.07117471983379185 0.7356280970895809
0.0454757995903492 -0.21919667720794678 -0.0024427950847893953 -0.22485993702136226 0.001298801636669112 0.9743902307787459
0.04009523242712021 -0.1473436951637268 0.06082354113459587 0.7858061915197642 0.15662146558015397 0.5983129163646129
-0.1363552361726761 -0.32420387864112854 -0.010852145962417126 -0.7613547275595269 0.2896233500686408 -0.5800493892055886
-0.06552749872207642 -0.08459407091140747 -0.051188863813877106 -0.8432788157246665 -0.3458353912964844 -0.41143495364007615
0.10954684019088745 -0.13682495057582855 -0.04395856335759163 0.9992328337707715 0.03637118072606361 -0.014521746693344913
-0.08690973371267319 -0.24052609503269196 0.05226642265915871 -0.08203614368843093 0.048779669752576714 0.9954348873470131
-0.054239530116319656 -0.20885591208934784 0.05856868624687195 0.29270242714061034 -0.6573571981205627 0.6944111197446935
-0.11448275297880173 -0.03516474366188049 0.017690174281597137 -0.9913724665052711 -0.08620350692370667 -0.09874000227521622
-0.03691237047314644 0.21101364493370056 0.06731255352497101 0.7470156185697093 0.4678495238509368 0.47231820698059734
-0.016421709209680557 -0.17111670970916748 -0.04132424294948578 -0.9491231830561677 -0.2683305951675019 0.164814668893222
-0.09414991736412048 0.22382022440433502 -0.0388774573802948 -0.8432562719063907 0.22320640193563848 -0.48897623871255874
-0.1251850724220276 -0.3354654312133789 -0.021147489547729492 0.019602019946832396 0.18398614715806055 -0.9827333608196765
-0.06886961311101913 0.3978186249732971 -0.004863288253545761 -0.3697717754993722 0.9126956607284299 -0.17394098117331827
-0.09429308772087097 0.018523579463362694 0.06517315655946732 -0.8091968455294408 -0.02919489154660833 0.5868118297144188
0.0764922946691513 -0.19425144791603088 -0.016708428040146828 0.9973749766447096 0.004496090483104399 0.07226991859226634
0.017551926895976067 -0.15947791934013367 0.08711856603622437 0.797044123602174 0.19495822983909775 0.5715872231333096
-0.11716938018798828 0.0943695679306984 0.10943683236837387 0.7707899708919995 0.5368333766068928 -0.3430637645295005
0.0358574315905571 -0.18641828000545502 -0.04653219133615494 -0.14529179413704577 -0.5954638183183709 -0.7901348844533728
-0.020332524552941322 -0.12775610387325287 0.09169138967990875 0.14760371347318563 0.2506457029339432 0.956760092901912
0.004144085571169853 -0.010430392809212208 -0.07809322327375412 0.38328496162726033 0.28234870677858376 -0.8794156275452757
-0.08629155158996582 -0.11327832192182541 0.005011236295104027 -0.74500415250865 -0.2683450963664949 -0.6107042835947074
0.01678459532558918 -0.165243998169899 -0.057545263320207596 -0.34656660468609674 -0.7326608887636805 -0.5857470534218372
-0.08093944191932678 -0.24041427671909332 0.052527401596307755 -0.04557380520588892 -0.052187278198003124 0.9975968706212646
-0.033551815897226334 0.22499041259288788 0.04591283202171326 0.8055508737989585 0.4755261246420944 0.35350062871882676
-0.0571800172328949 -0.19342829287052155 0.07889112830162048 -0.6394316709816267 -0.3407443831923576 0.6892172396773781
-0.08749480545520782 0.02627386711537838 0.09903386235237122 0.24589749085847767 -0.8215055943573564 -0.5144540625061403
-0.11702675372362137 -0.3166082203388214 0.029376501217484474 -0.3317532964032165 -0.3181463188751892 0.8881005968423658
0.0022089113481342793 -0.058669932186603546 0.04488770663738251 0.64787873789306 0.31827108002124854 0.6920669480680347
-0.014375300146639347 0.37529438734054565 0.04430011287331581 0.3416782146658369 0.1558988675042739 0.9267963858009219
-0.09747304767370224 -0.41015857458114624 0.03577189892530441 0.7074151960157627 -0.6509347479920086 -0.27540460109184917
-0.06544963270425797 0.046130403876304626 -0.045594096183776855 -0.6147878348390051 0.267670221729785 -0.7418817766552134
0.030346984043717384 -0.3841627240180969 -0.005588049069046974 -0.17123797300065263 0.012424827540881533 0.9851513489120376
-0.04781978577375412 0.27420005202293396 -0.017269402742385864 0.4795313749027877 0.4594628874626819 -0.7476252507294662
-0.0713423490524292 -0.16798529028892517 0.03521523252129555 -0.9640981806125598 -0.09094461349951123 -0.24948702454231284
0.035001855343580246 -0.17746594548225403 0.014054927043616772 0.04942328176044039 -0.8775435777704242 0.4769429822671801
-0.08643124997615814 -0.1124744564294815 0.04514683037996292 -0.8724686527285735 -0.485206563650536 0.0580778838838501
-0.17265993356704712 0.16989240050315857 0.14243778586387634 -0.43364615329447564 0.5819962092942047 0.6879181827078569
0.051886484026908875 0.08264490962028503 -0.10964155197143555 0.06757975097198668 -0.36778873425531194 -0.927450496907215
-0.11423153430223465 -0.3555227816104889 -0.010692160576581955 0.9687114258093078 -0.24651605073327534 0.02877516702588148
-0.09208820015192032 0.22342191636562347 -0.042621154338121414 -0.8455850297353317 0.20095737185305046 -0.49457263590438666
0.07073025405406952 -0.11932837218046188 -0.09282857924699783 0.6356258744369436 0.24384221162081798 -0.7324757494812639
-0.12617996335029602 0.17768524587154388 0.04323051869869232 -0.9603950483406334 -0.2783938683768193 0.0117560696230751
0.04487786442041397 0.10585286468267441 -0.10628349334001541 0.7968977921802658 0.5558011588789213 0.2367255385611492
-0.08365608006715775 -0.2532850205898285 0.05020771920681 0.34540890961248466 -0.26600787164796297 0.8999624977640097
-0.09867501258850098 0.2204258292913437 -0.03241097182035446 -0.8593961384867203 0.20802330569195465 -0.46708091530601603
-0.12566009163856506 0.21256215870380402 0.02155224047601223 -0.918383003688013 0.19581172451799606 -0.34384651674587585
-0.15835320949554443 -0.4063441753387451 -0.008795339614152908 -0.9562058224144092 -0.1144392161430912 0.26939578873720016
-0.08093450218439102 0.22535747289657593 0.11246012151241302 0.5844987875075002 0.012549308408274399 0.81129753004723
-0.04117489978671074 -0.12382974475622177 -0.03417428582906723 -0.7201231435155755 -0.6892319330832813 0.0798874244892723
-0.06384888291358948 0.26354846358299255 -0.04283967614173889 -0.25743487492692396 0.8383734021569658 -0.48047614272418737
0.026220275089144707 -0.2841063141822815 -0.04591827839612961 -0.5914647061784216 -0.19116210533810526 -0.783343188409765
0.051763057708740234 -0.08358821272850037 0.004518697038292885 0.74500872294419 0.23446838044465973 0.6244890561961239
-0.005584200378507376 0.2957044243812561 0.02535918354988098 0.4778642766179383 -0.7060031418873238 0.5226904406794158
-0.048418037593364716 0.36839887499809265 -0.030226334929466248 0.09085098870681088 0.00659405973491128 -0.9958426664022824
-0.003567976411432028 0.12581199407577515 -0.006225333083420992 0.9292281610219507 0.11448060664698748 -0.3513249428456532
-0.022204658016562462 -0.17616945505142212 0.009609363973140717 -0.12187841874443796 -0.799928331909908 -0.5875885591569902
-0.13590580224990845 -0.39073169231414795 -0.03580349311232567 0.2909579702553731 0.27414721168462186 -0.9166170224638099
-0.02490546926856041 0.19109398126602173 0.07290230691432953 0.7343405706990899 0.4526964277226195 0.5057765025705663
-0.14941540360450745 -0.37565815448760986 -0.025406502187252045 -0.8592142888502027 0.43794979375693616 -0.26448210522433807
0.017222270369529724 -0.2720143496990204 -0.03577921539545059 -0.9386931779774558 -0.07510125597188638 -0.3364742471126575
-0.03525248542428017 0.20015336573123932 -0.07080654799938202 0.39621854367382286 -0.9179753911669385 0.01822215302595071
-0.1632041484117508 0.1433207243680954 0.15147362649440765 0.06586262844705791 0.029389168034189218 0.9973958045712359
-0.023108843713998795 0.3355701267719269 -0.021382655948400497 0.3273978588353353 -0.08595456422746107 -0.9409688915785183
-0.05701139569282532 0.015425502322614193 0.0814817026257515 0.10916390938083338 -0.034099350432161564 0.9934387123465634
-0.02126752771437168 0.08056432008743286 -0.04604757949709892 0.2956451448703075 0.4140468259487067 -0.8609060193984105
0.0026123228017240763 0.07767748087644577 -0.025927437469363213 0.8086287853157763 0.36465418626813073 -0.4616782559270684
0.07278565317392349 -0.09902537614107132 -0.009715990163385868 0.676959510870223 0.3764685548479956 0.6324533562666977
-0.03722367435693741 -0.15809300541877747 0.09368982166051865 -0.35132461271652726 -0.07147956884278629 0.9335211233483854
0.10609598457813263 -0.126725971698761 -0.04300886392593384 0.9311213771179686 0.33099144333941233 0.15315888975188593
-0.09949716925621033 0.3516959547996521 -0.0020144397858530283 -0.9784279616286361 -0.20335084959095806 -0.03643015061549871
0.042729150503873825 -0.06711101531982422 -0.08801542967557907 0.4675917050784857 0.5212214769573421 -0.7139230836022893
0.06483961641788483 -0.0995926633477211 -0.08824225515127182 0.5229403651718738 0.3750139039924773 -0.7654397078060612
-0.16450464725494385 0.18723765015602112 0.12143254280090332 -0.7112324060374451 0.7002623991354059 0.0614901370897182
0.08849555253982544 -0.15035925805568695 -0.06549901515245438 0.6528427454337333 -0.553487570112168 -0.5171536130260269
-0.02305404469370842 -0.08089455217123032 -0.08321090042591095 -0.3600423767529379 -0.18496676717360072 -0.9144160879946518
0.09274271130561829 -0.11081873625516891 -0.07255896925926208 0.7534749276126237 0.39166103779281014 -0.528088216999973
-0.0715312734246254 -0.012718257494270802 -0.06073171645402908 -0.6249136895388115 0.08448482713603771 -0.7761090094895071
-0.11619698256254196 0.14015741646289825 0.03264540433883667 -0.9910609561410915 -0.13268160164198872 0.013920265745391
-0.10356032103300095 0.23279108107089996 -0.010747063905000687 -0.8635256868011634 0.362331297746529 -0.3507697519853949
0.024003351107239723 -0.26532411575317383 -0.00779270613566041 -0.6244144847108809 -0.0280766840200867 0.7805884005656767
-0.09675787389278412 -0.10615018010139465 0.032432664185762405 -0.8285566780830558 -0.38514159382290636 0.40639855303817585
-0.041424140334129333 0.1947685182094574 -0.08021771162748337 -0.2571374881003682 -0.9147370850961659 0.3116670938087669
-0.005983676761388779 0.10789404809474945 -0.018693016842007637 0.842607016927901 0.22594176103949296 -0.4888391715505589
0.03863890469074249 -0.3332580626010895 -0.0410960391163826 0.19374976589339837 -0.18482527312155406 -0.9634835995655536
0.017432348802685738 -0.25460541248321533 -0.035870980471372604 -0.9609962333140767 0.07350648148865765 -0.26661402201556195
-0.0878201276063919 0.08225814998149872 -0.016184575855731964 -0.8488504231160381 -0.04949043715061167 -0.5263113677343141
-0.0825846791267395 -0.22086872160434723 0.012623251415789127 -0.2094426131344993 0.49659428497859326 -0.8423347956305688
-0.1163448616862297 -0.2646099925041199 -0.004846102558076382 -0.5957345322586246 0.4838183748353624 -0.6411085300058538
-0.02012139931321144 0.05220374837517738 0.06522266566753387 0.6239647834290146 0.03819687457800983 0.7805183840325959
-0.03467847406864166 0.2942497134208679 -0.008123213425278664 0.5236375282082889 -0.21937888847968956 -0.82321117724514
0.0038410243578255177 0.1411343365907669 -0.12569604814052582 -0.4282822749822844 0.4644579181724471 0.7751471700154208
-0.10233650356531143 0.15602493286132812 0.0773971676826477 -0.5920584941967134 -0.08192152700169673 0.8017204019252788
-0.09893938153982162 0.07338695228099823 0.05480657145380974 -0.8670848647389253 -0.04850853348217494 0.4957930611859029
-0.06552109122276306 0.054131366312503815 -0.042286451905965805 -0.6418045218330999 0.21192584450628793 -0.7370036581896202
-0.1322697103023529 0.11075785011053085 0.1387045830488205 0.6223526440619791 -0.01827624449818667 0.7825235877058953
-0.11015261709690094 -0.23330844938755035 0.02266705594956875 -0.8032942130413141 0.5802632075470375 -0.13421258235187797
0.03331286087632179 -0.065660759806633 -0.09142211079597473 0.33553996887879095 0.5006909298590829 -0.7979483204078238
-0.12018827348947525 0.2001417577266693 0.0776107907295227 -0.6805443387947163 -0.7145074090486739 -0.1622916059105135
-0.001026536338031292 0.13730889558792114 0.0065445676445961 0.9909631583924348 -0.0658059794983655 -0.11688281212886262
-0.004244981333613396 0.14703327417373657 0.028299778699874878 0.9355366309913702 -0.06987159648995911 0.34625015823427624
-0.09319615364074707 -0.026462476700544357 -0.0343354195356369 -0.836803545211167 -0.06672545350934002 -0.5434220648593463
0.005830422975122929 -0.00478915311396122 0.031361766159534454 0.7820733771056886 0.09237120419037995 0.6163025178099816
-0.1112855076789856 0.24790358543395996 0.02503443881869316 -0.8174051239529827 0.47411414515779393 -0.32720733594573226
-0.11741172522306442 -0.2996111512184143 0.03512858599424362 -0.37207266400823913 -0.2747252502173139 0.8866160215058413
-0.11971455067396164 0.23099960386753082 0.027699794620275497 -0.8828590896125081 0.37533946040749067 -0.28227666809282553
-0.017515193670988083 0.21124054491519928 -0.07943511754274368 0.9157331352030709 -0.3828151229365272 0.12200576520085399
-0.10510630160570145 0.2607060372829437 0.07136750966310501 -0.5525506319723367 0.7972324994228063 0.24312165878637138
0.01793012209236622 -0.14512795209884644 -0.09110127389431 -0.5087560840715258 -0.5410528189211434 -0.6696484854441851
-0.003128118347376585 0.006415722891688347 -0.07507279515266418 0.3952405620452793 0.36596325607218627 -0.8425294020502638
0.02652386762201786 -0.22000661492347717 -0.012856109999120235 -0.8004592241081245 0.15418685679839256 0.579216232275004
-0.06438202410936356 -0.1806701421737671 0.019174039363861084 -0.197432692895493 -0.8807271173150596 -0.43051141285910094
-0.06022900715470314 0.003266868181526661 0.08083797991275787 0.1776707751706335 0.07443982960363434 0.981270506750737
-0.03885076195001602 0.1744759976863861 -0.17269112169742584 -0.8068323395295912 0.1982955267417229 -0.5565073763782735
-0.06485632061958313 0.02141394652426243 -0.058942828327417374 -0.5905315507772245 0.27036646789183877 -0.7603778406662951
0.0018986413488164544 0.17118948698043823 0.022551599889993668 0.9423828461190145 -0.10392331573845542 0.3179850873650389
-0.04862991347908974 0.3434737026691437 0.04879992455244064 -0.03552409445439291 -0.040557583049594025 0.9985455028041391
-0.04412213712930679 -0.18056300282478333 0.01801576092839241 0.03755429293540853 -0.8090112737076933 -0.5865922213053776
-0.057505737990140915 0.295520544052124 -0.016637451946735382 -0.22994642349093428 -0.1582462264838269 -0.9602514119371849
-0.08417391031980515 0.2432740330696106 0.10828409343957901 0.39106304393260943 0.5062605026302118 0.7686156381096908
-0.09261545538902283 -0.03376871347427368 -0.03208499029278755 -0.8275206255929648 -0.19083730627078824 -0.5280063794629167
-0.09350220113992691 0.26771044731140137 0.01922283135354519 -0.765514892339025 0.3831107030401983 -0.5169266280848916
-0.03636733815073967 -0.1772536039352417 0.011481241323053837 0.030391004081942324 -0.8370024246444948 -0.5463545808448285
-0.09131532162427902 0.06380806863307953 -0.013063674792647362 -0.8103715508058805 -0.06732158887388102 -0.5820358694410237
-0.09795626997947693 0.03106890805065632 0.0989498570561409 -0.9205976067484212 -0.3269608960620219 0.2135336481573789
0.019406281411647797 -0.018776895478367805 -0.07199659198522568 0.5912405179410809 0.3831498942624403 -0.7096695065109134
-0.06521926075220108 0.18462297320365906 0.09005139023065567 -0.12002999960994373 -0.01915438060716858 0.9925854667972893
0.030653823167085648 -0.11566593497991562 -0.1082695946097374 -0.13453273286989298 -0.021289872157028492 -0.9906804152349512
-0.040207527577877045 -0.1310068815946579 -0.006797977723181248 -0.4106610624550666 -0.4569984282745783 -0.7889929837063451
-0.060007426887750626 -0.005618722643703222 -0.06788083910942078 -0.5052110337695783 0.13357051460625916 -0.8525964631555147
0.10449447482824326 -0.12636487185955048 -0.03801524639129639 0.9081623093606189 0.3312126178611964 0.2560066827766824
-0.011727592907845974 0.2039281278848648 -0.028937550261616707 0.9482525191166308 0.16995614681620308 -0.2682015438962893
-0.11371611058712006 -0.038042102009058 0.012452928349375725 -0.953888763814712 -0.12967629655685592 -0.2707033143117003
-0.13415613770484924 -0.34831467270851135 0.009450477547943592 -0.7155347045538768 -0.1966180492490387 0.6703368028748675
-0.1004895269870758 0.26009127497673035 0.08369120210409164 -0.3938313194820191 0.8509881456780941 0.34744217894552004
0.030942723155021667 0.07840664684772491 -0.09865837544202805 -0.8823077967584126 -0.20324561003675864 -0.4245281778399421
0.008683684282004833 -0.07285943627357483 0.04627551883459091 0.5832537645066591 0.3829471620056679 0.7163564177842028
-0.008808935061097145 0.0978686735033989 -0.028491904959082603 0.700418540146282 0.31878567524841767 -0.6385840288292228
-0.1731678545475006 0.13586574792861938 0.1507464051246643 -0.5214974156614118 -0.2837021614864527 0.8047071076027498
-0.11485957354307175 -0.3826543688774109 -0.011216661892831326 0.9861305637327658 -0.008959919522587071 -0.16572939122028568
-0.028786415234208107 0.3108990490436554 0.04221849516034126 0.06713974679073377 -0.41555019900785706 0.9070889077182053
-0.14399556815624237 -0.41392967104911804 0.017901038751006126 -0.7827764302441482 -0.6193367882089039 0.06068775020799049
-0.024686502292752266 0.38840654492378235 0.041095513850450516 0.24514366197033027 0.5099074280142551 0.8245598825140982
-0.052777014672756195 -0.1626122146844864 0.004776232410222292 -0.11306991448636138 -0.41137041414463693 -0.9044277620708672
-0.07884208112955093 -0.15628360211849213 0.047743797302246094 -0.6940692229387693 0.04155360720424003 -0.7187080154676786
-0.05804666504263878 0.34684064984321594 0.0459335520863533 -0.19910419403194304 -0.027154699655180133 0.9796020325650246
-0.03569423779845238 0.30308759212493896 -0.011295770294964314 0.30686262243225976 -0.3996197494909124 -0.8637936019506147
-0.045065928250551224 -0.019784677773714066 0.07874320447444916 0.28625444609785256 -0.005096288186864899 0.9581400836704037
-0.04518486186861992 0.18182431161403656 -0.15629594027996063 -0.9220786244190005 0.13864672122734126 -0.36131440198596015
0.07662254571914673 -0.4120316505432129 -0.02928333356976509 -0.6554110813493262 -0.36117695962902147 0.6633155495521293
-0.09524856507778168 0.36755961179733276 0.01431146077811718 -0.9230525237072005 0.045683720835314294 0.3819516149048322
-0.07538953423500061 0.09256613999605179 -0.03136362507939339 -0.5854886195109847 -0.0344049335660644 -0.8099502311682095
0.008770047686994076 -0.046648524701595306 0.033718131482601166 0.6479587409243054 0.2994330496044431 0.7003494262611858
-0.09955001622438431 0.04095274582505226 0.003121749497950077 -0.893549710676054 0.15720928370820053 -0.4205403139613308
-0.04866233840584755 0.17959822714328766 -0.13689613342285156 -0.8713157429284719 -0.49061018020718417 -0.010513191812159704
-0.0837935358285904 0.3132662773132324 0.013884059153497219 -0.9637150891936053 -0.24401079694355707 0.10822179926212522
0.04334152117371559 -0.047060009092092514 -0.011405770666897297 0.7747918518648667 0.5158870015743693 0.365456136752986
-0.07938294857740402 0.23288729786872864 0.1099468246102333 0.5898779738639581 0.169949140570394 0.7894056407003539
-0.12885351479053497 -0.40683236718177795 -0.027306757867336273 0.6312420385779058 -0.5351712849992782 -0.5613601201049385
0.029964281246066093 -0.123089499771595 0.059574201703071594 0.6095667965025154 0.35973518023352063 0.7064127127282023
-0.04732929542660713 0.2902291417121887 0.036374710500240326 0.35327167065208515 0.008123018282308487 0.9354855120677551
0.04837576299905777 -0.044312842190265656 -0.05837756395339966 0.760822858244861 0.5700606073328048 -0.3101281708253448
-0.08378569781780243 0.20275568962097168 0.10459470003843307 0.6529190866331442 -0.5882507554347293 0.47713490235007033
-0.06492407619953156 0.0983915627002716 0.07937416434288025 -0.047387886373472236 -0.054213000794086426 0.997404300557179
-0.12018146365880966 0.16562604904174805 0.03283093124628067 -0.9533637748897199 -0.28216783688259334 -0.10713927644436362
-0.08320863544940948 0.148912250995636 0.08315179497003555 -0.2833134098692806 -0.10269517507705864 0.9535130900014605
-0.11881226301193237 0.19573870301246643 0.006320477928966284 -0.8944092761713713 -0.04360696480644826 -0.44511850031084166
-0.004269480239599943 0.12463105469942093 -0.13453499972820282 -0.7343662236450899 -0.440232839312517 0.5166249091556558
-0.10444965958595276 0.19763001799583435 -0.02217213064432144 -0.9114202901189222 -0.13700539796042868 -0.387998164543654
-0.05786916986107826 -0.23434966802597046 0.04208077862858772 0.7567268613629653 -0.6238634215286624 0.1953430023581754
-0.04969530925154686 0.20545434951782227 -0.12076371908187866 -0.7201944406208027 0.5863624836744191 -0.3708085832853058
0.0681084543466568 -0.1671471893787384 0.007625163532793522 0.483878624673269 -0.7785926155968368 0.3995685367022563
-0.08240770548582077 0.08767431229352951 -0.02476505935192108 -0.7518576613457646 -0.016767723176988245 -0.6591122063314695
0.01645427942276001 -0.27268069982528687 -0.03362923115491867 -0.9505495968724171 -0.07854110099060037 -0.3004775521413701
-0.10243619233369827 0.020573291927576065 -0.00443290127441287 -0.8972669676021281 0.2286830419227601 -0.3776454093286911
-0.14207404851913452 -0.3570989966392517 -0.023551149293780327 -0.7598512350662481 0.32148079230495236 -0.5650453085791239
-0.07876625657081604 0.17841452360153198 0.08657465875148773 -0.29268414833152867 0.015874690022127314 0.9560773941120819
0.07503940165042877 -0.0768187940120697 -0.056254684925079346 0.7760789776510144 0.6015161367592585 -0.18941952820755661
-0.02945178747177124 -0.18254023790359497 0.02176732011139393 0.0783813961776412 -0.7861178246722732 -0.6130865538125729
0.08328235149383545 -0.4269997775554657 0.0026840383652597666 -0.26485854359451616 -0.7235653304310102 -0.6374191434866502
-0.04407799243927002 0.002959929872304201 0.07839751988649368 0.295792173936657 -0.07573724365500586 0.9522451678855445
-0.08318723738193512 0.109773188829422 -0.027048034593462944 -0.6806135520619135 -0.12302730839568726 -0.7222392083919131
-0.08563732355833054 -0.2694503366947174 -0.005885401740670204 0.6060694739473407 0.06252295898778983 -0.7929506115443793
0.022619126364588737 -0.24620378017425537 -0.011580346152186394 -0.7510906224810951 0.1575210088648667 0.641131818417364
-0.029333774000406265 0.21442647278308868 0.04867488518357277 0.7959366254377355 0.4846283127993066 0.36279510294391737
-0.0030249247793108225 0.3115714192390442 -0.005173289217054844 0.6041772567189237 -0.2940488058044184 -0.740611330097367
0.0552668422460556 -0.1039363294839859 -0.09697048366069794 0.547476028793634 0.4279231630325585 -0.7191326473165869
-0.06331131607294083 0.0809394121170044 -0.04084530845284462 -0.44909077832332767 0.1868801477964048 -0.8737238025740982
0.027086233720183372 -0.2279857099056244 -0.04484889283776283 -0.7842298496268092 0.17136782973216164 -0.5963359874158202
-0.01286125835031271 -0.02137681096792221 -0.08557499200105667 -0.022603860893535714 0.18149170195146838 -0.9831326602221419
-0.0010386278154328465 0.11990390717983246 0.02455844357609749 0.955325292378964 0.10501599936341639 0.2762702040009922
-0.04971788078546524 -0.22082622349262238 0.05086126923561096 0.7174299034871455 -0.5119693042264685 0.4724211734377396
-0.08489465713500977 0.021980836987495422 0.07244253158569336 -0.542056483275542 -0.13757533470709304 0.8290040990364181
-0.08807588368654251 0.18676088750362396 0.08401952683925629 -0.2927540291280868 -0.4031695884406225 0.8670348097890248
-0.035899046808481216 0.21700720489025116 0.05921576917171478 0.7769374102387074 0.46738703337638926 0.42180282313326034
-0.0031222018878906965 -0.17565444111824036 -0.05606108531355858 0.037358982978150934 -0.4120741886008961 -0.9103840780021096
-0.11699631065130234 0.17379732429981232 0.10897588729858398 0.5220680427437219 -0.8328184962138702 -0.18400628008252184
-0.09996089339256287 -0.01715078577399254 -0.024415485560894012 -0.8865002911032528 0.02811632280610014 -0.4618730412848443
0.0032019594218581915 0.1011422649025917 0.0027896552346646786 0.9703258602234531 0.2049560990898512 -0.1282993469487934
0.07775688171386719 0.06199401244521141 -0.08705791085958481 0.8895913030639905 0.4564154224479988 0.017671323225111234
-0.016941582784056664 -0.15692688524723053 -0.021984707564115524 -0.9694629111141313 -0.18894883679808197 -0.15633298131477488
-0.09405114501714706 -0.02845526486635208 -0.03258074074983597 -0.8340408784637247 -0.11446595473065671 -0.5396974691983071
0.07993846386671066 -0.42744168639183044 -0.03438693657517433 -0.3912833231279344 -0.5562775043299004 0.733111655355757
-0.02331726998090744 0.15372934937477112 0.06828680634498596 0.7772703021096842 -0.26202223077351355 0.5720098146350218
-0.1139766126871109 -0.42134708166122437 0.06688766926527023 0.2938320518675565 0.937930740507692 0.18425159783837444
-0.04050915315747261 -0.18147188425064087 0.01927303895354271 0.19515558372133263 -0.7440397302488103 -0.638998574297051
-0.09102869033813477 0.16708265244960785 0.08298715949058533 -0.32345459761750844 -0.03540886796943188 0.9455809512406746
-0.05354988947510719 -0.023738689720630646 -0.07275334745645523 -0.46018980299218126 0.03387909529177118 -0.887173913122015
-0.07979681342840195 0.1750006079673767 -0.04946892336010933 -0.510456576496524 -0.4066897003432579 -0.7576526718399135
0.06798959523439407 -0.19983457028865814 -0.005354901310056448 0.6311437564110334 -0.08463550062935572 0.771034623591307
-0.02518942952156067 0.21091726422309875 0.0434119738638401 0.8067912375200662 0.4861449137290133 0.3357841894971392
0.0056582423858344555 0.16754086315631866 -0.008676094934344292 0.9543283776654113 -0.2162659529909441 -0.20612225779721838
-0.10142872482538223 0.18872015178203583 0.10580811649560928 0.6623797107506421 -0.7392695090390603 0.12138250199696286
-0.09632358700037003 0.16585208475589752 0.08093784749507904 -0.3280518376790142 -0.037882142757395765 0.943899854357193
-0.11774838715791702 0.17785286903381348 0.11913934350013733 0.6561625207628543 -0.5863394152716342 0.4750335108653441
-0.07951828092336655 0.030194448307156563 0.07617412507534027 -0.26550841725039714 -0.034382832989644695 0.9634952522793225
-0.007036578841507435 -0.2003365457057953 0.07309023290872574 -0.023328371565736243 -0.9873769280737669 -0.15666074488429607
-0.0009443376329727471 0.15189622342586517 -0.00555295217782259 0.923405483332025 -0.3063715812784282 -0.23121152120364827
-0.10450563579797745 0.26100999116897583 0.030835682526230812 -0.6782402939505808 0.6263514033593527 -0.384283779480216
-0.13006757199764252 -0.34062981605529785 0.01505552139133215 -0.584738252341898 -0.14691177538951844 0.7978083143838766
-0.12603648006916046 -0.2636825442314148 0.017934752628207207 -0.9693586791891379 0.2454535714685748 0.009813018598336908
0.07502690702676773 0.05834826081991196 -0.09061910957098007 -0.19997361344303446 -0.05697798046023904 -0.9781431713554047
-0.03908104449510574 -0.2005949169397354 0.03477325662970543 0.7239863724550075 -0.43454199561455603 -0.535739663033043
0.03682475909590721 -0.10930119454860687 -0.10771666467189789 0.08183970524701552 0.2503235215333602 -0.9646970494472443
0.056502565741539 0.08959043771028519 -0.10308725386857986 0.7823336343584774 0.6218120028056258 0.03610980086226949
-0.0385398305952549 0.25844570994377136 -0.05034268647432327 0.44981628755249387 0.8877381053654937 -0.09790997770695195
-0.12107482552528381 0.17316283285617828 0.12004560977220535 0.7409573530033021 -0.47270378970377125 0.4770045369071797
-0.017039865255355835 -0.16339780390262604 -0.023958424106240273 -0.9310626503922511 -0.3578090032090325 -0.07137967684933344
-0.07655180245637894 0.39212554693222046 0.017863672226667404 -0.48065306949580755 0.8117900944069892 0.3316164492406096
-0.04951109364628792 0.11100685596466064 0.07858076691627502 0.2704503272384618 -0.09816907052055801 0.9577157480639747
-0.0003921528405044228 0.15507273375988007 -0.008023864589631557 0.9107384769324862 -0.30150303533563744 -0.28222570102329947
-0.050275955349206924 -0.049385324120521545 -0.074210986495018 -0.5410719232327262 -0.0744777530179757 -0.8376719156057651
-0.0026733255945146084 -0.18755650520324707 0.04786446690559387 0.19937537786461146 -0.9091783693844839 -0.36557372901333357
-0.00839277170598507 -0.14994286000728607 -0.06032324954867363 -0.33979006013430413 -0.711189254821588 -0.615428760182883
-0.08285634964704514 -0.2518514096736908 8.979177073342726e-05 0.5541775269498834 0.23452716703937349 -0.7986765781868134
-0.07875818759202957 0.27093762159347534 -0.017014943063259125 -0.7546423610976624 0.5048513806632852 -0.41909424987623045
-0.04455484077334404 -0.19983194768428802 0.08636026084423065 -0.4061971191520013 -0.5234033431222199 0.749034605876857
-0.10168735682964325 0.012413358315825462 0.056155938655138016 -0.8562676400882772 0.0656817545108575 0.512339375474917
-0.03553271293640137 -0.17916333675384521 0.09178181737661362 -0.2623880841560575 -0.162268756980057 0.9512209752739165
-0.10269338637590408 -0.056227635592222214 -0.003590439446270466 -0.8439736679378639 -0.18427523776125862 -0.5037371185207022
-0.056526992470026016 0.11886478960514069 0.08116716891527176 0.18477903571402216 -0.14038534849251733 0.9727017332611425
-0.000601641833782196 0.33275336027145386 0.033786170184612274 0.7087779620779936 -0.05447347505327753 0.7033252739580643
0.1033892035484314 -0.428619921207428 -0.0015589038375765085 -0.4970657151428556 -0.8652115817052184 -0.06583763143275971
-0.0068420534953475 0.17491674423217773 -0.030763808637857437 0.7312543506139142 -0.012237361591698264 -0.6819951038603553
-0.037702422589063644 0.16946129500865936 -0.17570315301418304 -0.8083619180147505 0.14728686974686941 -0.5699627948416306
-0.09367033839225769 -0.09883222728967667 0.037221893668174744 -0.823702933004229 -0.34075776087676474 0.45320814926751285
-0.09314081072807312 0.10010475665330887 0.06804460287094116 -0.593725973787632 -0.2331016744124415 0.7701643184646014
0.04959021881222725 -0.2740543484687805 -0.005826506298035383 0.29207631952516716 -0.14741694419590892 0.9449654322442557
-0.0968693345785141 -0.4239565432071686 0.05384773761034012 0.17426969358421282 0.9757980830561227 0.13209154023653827
-0.12316597998142242 0.08610035479068756 0.12963567674160004 0.5405351416398372 -0.051787280294696626 0.8397260495257246
-0.055652301758527756 -0.20356130599975586 0.06571102142333984 -0.17619145972617622 -0.7944348848641445 0.5812312648425348
-0.019726891070604324 0.2360391616821289 -0.050839491188526154 0.9182423919089516 0.3840265400069161 0.09671879999071507
-0.0852595865726471 0.27900728583335876 0.01538993138819933 -0.9401644104989479 0.33250652796973595 -0.07436592020998074
0.03558235615491867 -0.021668728440999985 -0.03825591877102852 0.8501775865929662 0.5232502924245813 0.05837124919469863
0.03836038336157799 -0.08511552214622498 0.023846441879868507 0.8020362485093423 0.274774724023265 0.5303175530896552
0.03636831417679787 -0.1640462577342987 0.04735661298036575 0.9658830637552274 -0.24297698565899706 -0.0896219369958216
-0.12851449847221375 0.20240518450737 0.1264585554599762 -0.01558315380810581 0.5609098676270233 0.827730201041395
-0.12672258913516998 -0.312040239572525 -0.014099366031587124 -0.5349672224749412 0.18456741101014504 -0.8244664587904466
0.0027510439977049828 -0.084200419485569 0.05794525146484375 0.5774651369887863 0.38713504328331166 0.7187909806227056
-0.008266458287835121 0.19184456765651703 0.037792690098285675 0.8362056768791096 0.42237286864033724 0.3498016949525583
-0.026716282591223717 -0.15788988769054413 0.0013587705325335264 -0.657812370316338 -0.2515452395167541 -0.7099351223423588
0.044821757823228836 -0.05049259588122368 -0.010142370127141476 0.7657734403483094 0.5029317067648025 0.40081259509620815
0.03356446698307991 -0.1001371517777443 -0.10621531307697296 0.25417693450381046 0.2806137702460675 -0.9255538870938488
-0.03980647400021553 -0.1050410196185112 -0.07497251033782959 -0.40159778308527394 -0.1519276442451099 -0.903126354136078
-0.11564178019762039 0.24027541279792786 0.02773848921060562 -0.8757000835674439 0.4148841579816655 -0.2470232764251502
-0.132902130484581 -0.35918107628822327 0.007691153325140476 -0.36520772266724866 -0.2387742156252773 0.8997834146375091
-0.12012359499931335 -0.42076215147972107 0.024179553613066673 -0.21318637157386885 -0.9670568370812911 -0.13911378375091943
-0.09352601319551468 -0.06780209392309189 -0.012187659740447998 -0.760422298000171 -0.33725106055913917 -0.5549951809303167
-0.023698881268501282 0.2313397079706192 -0.005723797250539064 0.8630487578002177 0.5016477337039379 0.05913030466016709
-0.10146189481019974 -0.026058031246066093 -0.01971333473920822 -0.8932413293095585 -0.05452578061045108 -0.44625874429764856
-0.05775793641805649 0.3007512390613556 -0.016349254176020622 -0.15487744893495675 -0.08453076716115188 -0.9843106853095455
-0.09108681976795197 -0.07999461889266968 0.06855599582195282 -0.7793460574071972 -0.001388214089000116 0.6265922084302525
0.09889687597751617 -0.1643267571926117 -0.018890980631113052 0.8214546120351945 -0.5252816991594638 0.22201679417164547
-0.02992539294064045 0.2777479887008667 0.010784274898469448 0.8792219807782189 -0.46866267816016965 -0.0855803868661664
0.08801864087581635 -0.10824504494667053 -0.07516606152057648 0.6822716848626484 0.44408143927404226 -0.5807727811519562
-0.09074056148529053 0.19731052219867706 0.09514555335044861 0.4142900828475134 -0.834031296653576 0.36435631386948036
-0.11176592111587524 0.083986796438694 0.11809959262609482 0.8403186079975783 0.3555391453949403 0.40921455636969695
-0.14998751878738403 -0.37822243571281433 -0.015473236329853535 -0.925221226313897 0.3044144772143506 0.2264895327394229
-0.023549476638436317 0.24582409858703613 -0.06975925713777542 0.7741370903940232 0.6236788150391281 -0.1083351325640254
-0.012345260940492153 0.16755923628807068 -0.033097993582487106 0.5912073834101874 -0.17853454595830978 -0.78651080456707
-0.08814167976379395 -0.18073636293411255 0.016411805525422096 -0.38380992445584083 -0.8674031574081071 -0.3167044433026611
0.019184758886694908 -0.18718598783016205 0.06718072295188904 0.7689954004435219 -0.6389053352368584 0.0211198177687488
0.07466146349906921 0.05451007932424545 -0.09210668504238129 -0.1935171235111786 -0.33532843985075494 -0.9220119089985865
-0.07118507474660873 0.06842481344938278 0.07763201743364334 -0.2779281619751827 -0.028371052099076498 0.9601828056072906
0.052129145711660385 -0.06892745196819305 -0.0025533302687108517 0.7426518722881373 0.38946467142126096 0.5447801999904671
-0.0744767040014267 -0.028633849695324898 0.07885699719190598 -0.3208824954379572 0.07358745157773246 0.9442559563443612
0.049259644001722336 0.05142943561077118 -0.08211899548768997 -0.3062572368210185 -0.6092738717921609 -0.731431373435775
-0.019078722223639488 0.08662766963243484 -0.04118706285953522 0.4001804598848514 0.4163306820963514 -0.8164094332328208
-0.1303776353597641 0.06834709644317627 0.10966488718986511 -0.6956065196194907 -0.47673944256510625 -0.5374486708194292
-0.07663388550281525 0.37382572889328003 0.036123793572187424 -0.5790053657972707 0.24880705672975875 0.7764327626391375
0.052489086985588074 -0.12371060997247696 0.0194864384829998 0.6188200972261774 0.24420700862961076 0.74660874908158
0.09599634259939194 -0.1589442491531372 -0.0036745553370565176 0.851689293926978 -0.2575441281863572 0.4563949700061285
-0.06080632284283638 0.24924352765083313 -0.0672348216176033 -0.5804462831063312 0.5677208914271801 -0.5837594554824553
-0.015280175022780895 0.35996073484420776 -0.01734934188425541 0.5255059291877695 -0.019799582068073574 -0.8505595187512915
-0.14015062153339386 0.16626307368278503 0.1069323718547821 0.1820492170221203 -0.5775270286356469 -0.7958144342602198
-0.09335748106241226 0.2415522336959839 -0.03039819374680519 -0.8574202873359126 0.36124347422064407 -0.36651548834639985
-0.13567127287387848 -0.33348730206489563 0.01033251266926527 -0.8793332165185632 0.0014954700455107883 0.4762046386759171
-0.08520938456058502 -0.18040286004543304 0.04553164914250374 -0.695146800516698 0.21557943208534672 -0.6857816228167372
-0.030460085719823837 -0.12454552203416824 -0.07325277477502823 -0.18939513497781826 -0.26836923784773753 -0.9445143911152221
-0.1737726479768753 0.12468734383583069 0.13626351952552795 -0.8523831703103518 -0.5211247757930418 0.043265448412397794
-0.11451460421085358 0.13194972276687622 0.02474747970700264 -0.9836230715026844 -0.07167822459696213 -0.16537196052007322
-0.10586068034172058 0.09009236842393875 0.00953738670796156 -0.9138857954193886 -0.14470598664810883 -0.3793058533148006
-0.025360463187098503 0.24541649222373962 -0.04368412867188454 0.7639716021595214 0.6273621693247482 0.1508777637492017
-0.005878903903067112 0.00455806590616703 -0.07684465497732162 0.3589874503879323 0.3389158824021026 -0.8696344261352444
-0.09230168163776398 0.33495745062828064 0.007940980605781078 -0.9124637526768078 -0.4062528131743165 0.04866777002196844
-0.05992686748504639 -0.09913508594036102 0.08532577008008957 -0.2543201960365118 0.03657267219367907 0.9664283095690875
-0.014934550039470196 0.1330133080482483 -0.1640675812959671 -0.5916673259004079 -0.7745952806653293 -0.22345452922879028
-0.13046960532665253 0.11549728363752365 0.13704527914524078 0.7154421726125505 0.16702434138131295 0.6784138611744104
-0.06381258368492126 0.25044968724250793 -0.06337902694940567 -0.5410333294039129 0.633405360919951 -0.5532455017729324
-0.08879432827234268 -0.1478397250175476 0.05576171725988388 -0.8724322057397017 0.04892830881853034 -0.4862798237479298
0.04791118949651718 -0.3995648920536041 -0.04036765545606613 0.21216543996768633 0.3471247346188314 -0.913504375851109
-0.0679926797747612 -0.12417726963758469 -0.002853971906006336 -0.3931716670627574 -0.3086182686804018 -0.8661240121690448
-0.13341020047664642 0.16465821862220764 0.10789213329553604 0.38755141149566874 -0.8254925641131217 -0.41032417676961047
-0.07472597062587738 -0.18086305260658264 0.015372523106634617 -0.0949674066110695 -0.9662503485144098 -0.23946076020373241
0.017527371644973755 0.029308442026376724 -0.02061203494668007 0.9843732479627174 0.17459302187694212 -0.02294744881698448
-0.08186040073633194 0.04243967682123184 0.07202539592981339 -0.28308927544027274 0.2554212790512862 0.9244568309761718
-0.03051135316491127 0.25347793102264404 -0.050150323659181595 0.6686172168883329 0.7383506385767366 0.08825730447858376
-0.02273331955075264 0.39549803733825684 -0.00855195615440607 0.30453692054063236 0.7792460080881517 -0.5477526110447206
-0.026654962450265884 0.3953447937965393 0.03351740911602974 0.18724164226622436 0.7715439352492652 0.6079971409320318
-0.05328249931335449 0.01857263408601284 -0.0664685070514679 -0.39145613770650667 0.24499504239743108 -0.8869833828503133
-0.02788122370839119 -0.10421141982078552 0.08700205385684967 0.25246007981831303 0.2771479670303188 0.9270668327952912
0.008417299017310143 0.026365716010332108 0.029651571065187454 0.9208019860945535 -0.035964372249987026 0.38836872471015227
-0.130861297249794 -0.2936075031757355 -0.0016018628375604749 -0.900099163942398 0.24898519397691934 -0.3575302340368881
0.04399961233139038 -0.17553314566612244 -0.0738224983215332 -0.13665729632840323 -0.903401746391068 -0.40643581040279864
0.018900379538536072 -0.003855327144265175 -0.06442149728536606 0.7396911220912292 0.40092038645100947 -0.540481163064349
0.02409600280225277 -0.019508125260472298 0.003349871141836047 0.8801569892857205 0.2737764488923885 0.3877758763040445
-0.08778393268585205 -0.1628144085407257 0.053841497749090195 -0.7748296610545498 -0.015128521738818923 -0.631989022199033
-0.09250906854867935 -0.21148288249969482 0.04513050615787506 -0.9181064259401399 0.19902644731058786 0.34273760213660276
-0.033289939165115356 -0.17806188762187958 0.014851345680654049 -0.036911770409122364 -0.8290510826671297 -0.5579532449352046
-0.039630014449357986 0.04357173293828964 -0.061504971235990524 -0.2393603155845065 0.39175327619680556 -0.8883895597722629
0.06065739318728447 -0.22714278101921082 -0.04684595391154289 0.5448003426143496 0.2132589250804943 -0.8109952019345118
-0.04213371500372887 0.1895424872636795 -0.08816258609294891 -0.06094321676516315 -0.9249626502106375 0.37514000059394936
0.05312338471412659 -0.2543192207813263 -0.05298604816198349 0.36798868397114853 -0.012102775819703149 -0.9297514997496052
-0.04154200851917267 0.3999446928501129 -0.008810576051473618 0.07471775119746044 0.8660308053890278 -0.49437627549592866
-0.00403589429333806 -0.14805686473846436 -0.060897741466760635 -0.38257226069990036 -0.651541972197115 -0.6550813108374116
-0.08230490982532501 -0.16084109246730804 0.02553715370595455 -0.9200525915390001 -0.13402981993903532 0.36815653758894423
0.05190074443817139 -0.18675048649311066 -0.0022542327642440796 0.24421894089910995 -0.4152662482582353 0.8763053417409064
-0.04758548364043236 0.1790051907300949 -0.1255171149969101 -0.8236743466031756 -0.5473954064792574 0.14805012567789408
0.05900014936923981 -0.05507846176624298 -0.04568134993314743 0.7841867416857853 0.6191023415814001 -0.04199339010676283
-0.03395778313279152 -0.14411525428295135 -0.062370505183935165 -0.3863001770100853 -0.7102941663742793 -0.5884338284434745
0.013001041486859322 -0.015460455790162086 0.024440336972475052 0.8176203815096789 0.08690016818977574 0.5691619035991043
-0.048214782029390335 -0.19125650823116302 0.02574927732348442 0.07483537364289203 -0.5738823888611468 -0.8155112939786624
0.04384463652968407 0.06531160324811935 -0.09823890775442123 -0.19575419721688023 -0.7415807201122796 -0.641668395535987
-0.04083679988980293 0.20336663722991943 -0.14407703280448914 -0.5464159281513656 0.6466196823407183 -0.5322711901578652
-0.00022735330276191235 0.028568653389811516 -0.06458727270364761 0.5042331105246669 0.4469022892425295 -0.7389366103532871
-0.1036539226770401 0.011231327429413795 0.0524105429649353 -0.9110544183500359 0.10060083253721638 0.39982411045070426
-0.02299097366631031 0.35758909583091736 0.04464694485068321 0.22570707394912062 -0.06844153624832755 0.9717880802342119
-0.04765984043478966 0.2336435765028 0.06315486133098602 0.7862448088389487 0.4481840698662908 0.4253823457689483
-0.012480190955102444 0.3520902097225189 0.042371395975351334 0.3869897394389867 -0.046260307527302015 0.9209228662143343
-0.08662143349647522 0.06235939636826515 -0.018250422552227974 -0.8175125356578475 -0.07132955000147684 -0.5714764643787735
-0.013532835058867931 0.39790353178977966 0.003390948986634612 0.47511756984106596 0.7972990156124933 -0.3722600898990773
-0.1089666485786438 0.02067585289478302 0.03348097577691078 -0.9588835219039366 0.22308604334429083 0.1754280726853381
-0.05946454778313637 0.28741103410720825 0.038160569965839386 -0.06358931765552361 0.33609201614154 0.9396800281830086
0.09290100634098053 -0.13696371018886566 -0.008374635130167007 0.7739810573617314 0.25660293836527104 0.5788853555476468
-0.048938460648059845 -0.0931309312582016 0.08746005594730377 -0.07531651545159274 0.10349602678380507 0.9917741652917745
-0.037963178008794785 0.2729201018810272 -0.008948614820837975 0.824616734504419 0.0039055902223875346 -0.5656783428241561
-0.005829331930726767 0.11354875564575195 -0.014896172098815441 0.8672857914132152 0.19730925371366406 -0.45703874497870534
-0.07989665120840073 -0.13743840157985687 0.008755367249250412 -0.8549117670576128 0.023151473809522257 -0.5182565771959647
0.05284183472394943 0.08287042379379272 -0.08593589067459106 0.5227603128375528 0.7018570048155494 0.4838578304764012
-0.048933833837509155 0.1644318401813507 -0.049755871295928955 0.2093685116129766 -0.2183650800049607 -0.9531429683837542
-0.1083734855055809 0.2572937607765198 0.03376663103699684 -0.8037415663195716 0.5481397970747616 -0.231391999500849
0.04535050690174103 -0.4054366946220398 -0.04399394989013672 0.1360212743909455 0.00832098071425254 -0.9906709717121099
0.05510610714554787 -0.0669802725315094 -0.07683414220809937 0.5961242392105373 0.523723456657588 -0.6085635812076549
-0.002455134177580476 0.2961104214191437 0.0018995963037014008 0.7109364517765103 -0.5878601257912495 -0.38599201292270574
0.021975839510560036 0.13314290344715118 -0.14994719624519348 0.8809006800120531 0.14695976219305906 -0.4499075685632127
0.043302275240421295 -0.11943541467189789 0.02600787952542305 0.7554245347758661 0.13290528323831388 0.6416151166751061
-0.0011274897260591388 -0.035414181649684906 0.03894737362861633 0.7237077186688082 0.14832519355464652 0.6739783193072058
-0.08697225898504257 -0.07125107944011688 -0.016506977379322052 -0.7437033453745231 -0.3996354100099093 -0.535907522941183
-0.10174968093633652 0.05310213193297386 0.04484166204929352 -0.931349614765122 -0.012139360633248945 0.3639237983428329
-0.056182801723480225 0.3006886839866638 -0.016520634293556213 -0.09675237952051323 -0.01746285453452204 -0.9951552772148801
0.006382837891578674 -0.024415291845798492 0.03193579986691475 0.7169394167613445 0.04345687259342012 0.6957796870549633
-0.019335513934493065 0.3108322024345398 -0.016038015484809875 0.22919594120060793 -0.4241141781618265 -0.8761257811634617
-0.056285593658685684 -0.10505856573581696 -0.04474452883005142 -0.8527393401178981 -0.5021663837180947 -0.14375166391657201
-0.049269262701272964 0.1946404129266739 -0.13660608232021332 -0.9176268871810019 0.20411451225840047 -0.34102516301296604
0.0890742614865303 -0.1016487255692482 -0.034084126353263855 0.778943607118971 0.5556013902854339 0.29078162259912393
-0.07146651297807693 0.36670494079589844 0.041540589183568954 -0.5816075285297847 0.1802159158569488 0.7932558896278784
