ply
format ascii 1.0
comment VCGLIB generated
element vertex 392
property float x
property float y
property float z
property float nx
property float ny
property float nz
element face 0
property list uchar int vertex_indices
end_header
-0.09873176366090775 0.030466347932815552 -0.01828930340707302 -0.835242589858514 0.3005040502943176 -0.4605074720817814
0.010983036831021309 0.0890025869011879 -0.07943208515644073 -0.10500522078743449 0.7459654854568817 0.6576544671135908
0.0010908420663326979 0.03154837340116501 0.029404515400528908 0.9189472564074674 0.0028687833172918458 0.3943700166385204
-0.012483120895922184 -0.10485643148422241 0.06703923642635345 0.5361775212366082 0.31290829388221914 0.7839656021409903
-0.04603869840502739 0.1893238127231598 -0.14978578686714172 -0.7526261046073648 0.33286662402911027 -0.5681142114672074
0.0042627593502402306 0.04560228809714317 -0.06473076343536377 -0.4625435764535251 -0.459657484961606 -0.7581348405134491
-0.12726947665214539 -0.39003732800483704 0.009093984961509705 0.09311427720625583 0.7565484488389874 0.6472744208909222
0.051504138857126236 -0.18866375088691711 -0.03987202048301697 0.2792402807096725 -0.09213151518073169 -0.9557911118752287
-0.06920788437128067 -0.09919183701276779 0.08434494584798813 -0.13733250090863183 0.022354347226703583 0.9902727237252618
-0.03641444072127342 0.15427947044372559 -0.17782460153102875 -0.619695677392184 -0.1927005216328207 -0.7608178339023612
-0.03172675520181656 -0.1987023949623108 0.05739639699459076 0.168438223157835 -0.9789579640743127 -0.11519491983116348
-0.08937856554985046 0.3595302700996399 -0.023544687777757645 -0.5098019541114069 -0.12707602457674816 -0.8508546594818417
-0.0873151570558548 -0.27966323494911194 0.008271570317447186 0.9404321499395082 -0.3376836800064692 -0.03946015227343994
-3.891659071086906e-05 0.13199768960475922 -0.15382151305675507 0.8475435022950035 -0.0647236839412432 -0.5267645170800643
0.02391624078154564 -0.21306553483009338 -0.030480485409498215 -0.9131743393429039 0.09811821377912214 -0.3955824087221847
0.07717174291610718 -0.23814575374126434 -0.01910500042140484 0.955034378615783 -0.026992065904370345 0.29526388881842547
0.002337436657398939 0.05746348947286606 0.018417147919535637 0.9724902463973893 0.11645334146316583 0.20174573086935008
-0.06267638504505157 0.04049505293369293 0.08221561461687088 -0.003695539868474256 0.1187190750800236 0.992921006020733
-0.13309283554553986 -0.31505703926086426 -0.01852220669388771 -0.45793209243156474 0.15493619953972607 -0.8753816155217308
-0.09729606658220291 0.18080662190914154 0.08090553432703018 -0.37168308190308025 -0.07227182592977556 0.9255422571680908
-0.12313160300254822 0.17736542224884033 0.017972838133573532 -0.951379579020281 -0.21146496229677383 -0.22396309147718305
0.06038167327642441 -0.17129264771938324 -0.0582275390625 0.456295155532949 -0.8355704158924467 -0.3059686440184443
-0.12104799598455429 0.06567244976758957 0.10795114934444427 0.7074831648839836 -0.4008916403031575 0.5820253122852871
-0.03202565386891365 0.30113205313682556 -0.007767769042402506 0.2931827090691221 -0.49218513810954573 -0.8196326548686174
-0.11341219395399094 -0.34596583247184753 0.003309403546154499 0.8318689005604214 -0.31058732465502087 0.45992352195123953
-0.05903646722435951 -0.21019677817821503 0.016905875876545906 0.5793770521631739 -0.1717502252515699 -0.7967584901039625
0.09644252061843872 -0.14668217301368713 -0.012841146439313889 0.9465147751673804 0.17874836447874243 0.26862390546267156
0.00010035023296950385 0.03042341023683548 0.03137631341814995 0.8894016493168532 -0.07066096310491608 0.4516323000910664
-0.045175813138484955 0.3121444582939148 -0.015238771215081215 0.11294781335464907 -0.1883827395769619 -0.9755791791996598
-0.1603972613811493 0.20162656903266907 0.11706351488828659 -0.5661647454459453 0.8231466299364717 0.043440840672774886
-0.011498717591166496 0.1769840568304062 0.05179954692721367 0.9306118552191108 0.06251145052040229 0.3606298566112906
-0.0003680561494547874 -0.14711199700832367 0.07878684252500534 0.448715579073006 0.32484349526630113 0.8325449133111976
0.009247328154742718 0.026512308046221733 -0.00661670695990324 0.9867736809219682 0.11865420144445935 0.11044855417472635
-0.03977746516466141 0.18384894728660583 -0.16140376031398773 -0.30638308272440173 0.6188713022143202 -0.723275685970325
0.10646455734968185 -0.42449063062667847 -0.005926702171564102 0.4165355103655303 0.9066510268897225 0.06694836849646878
-0.14808207750320435 -0.4123615324497223 -0.02862177975475788 -0.3988589302298212 -0.8755802501679458 -0.2725266579469979
-0.063958540558815 0.15813900530338287 -0.04926851764321327 -0.15796632831170687 -0.3356239746668123 -0.9286566570851518
-0.002963491016998887 0.06723106652498245 -0.028469165787100792 0.7915780184667638 0.3613192539932143 -0.4928008090232997
0.06604932248592377 -0.29790523648262024 -0.027344081550836563 0.9442512099541484 -0.30049182808021657 -0.1345151060555527
-0.006416785530745983 0.1700677126646042 0.03594817966222763 0.9473612649962555 -0.036900075761193744 0.3180330454426283
-0.08088527619838715 0.32983946800231934 0.03345577046275139 -0.6348026108444751 -0.2576104166866718 0.7284658663791717
-0.08410009741783142 0.030010893940925598 -0.040791500359773636 -0.7487274299538128 0.3231794513380887 -0.5787592572629577
0.04786701872944832 -0.4111871123313904 -0.025759227573871613 -0.48423779786718796 -0.5779522865243334 -0.6568751096045818
-0.0834270566701889 0.10897429287433624 0.07811139523983002 -0.2519550551949061 -0.19770377238656572 0.9473288069861767
-0.09681152552366257 0.04734603688120842 0.06780984997749329 0.07113266342062118 0.6158920985457168 -0.7846126860710587
-0.083771251142025 -0.25402459502220154 0.037203896790742874 0.6981010811978057 -0.4130469878950302 0.5848479000742822
-0.05476506054401398 0.34556692838668823 0.05105336755514145 -0.08580356807026038 -0.04835001648178918 0.9951381932237466
-0.13147307932376862 0.207401841878891 0.03566781058907509 -0.9943445204601082 0.05660535793698627 -0.08985993592131745
-0.007731132209300995 0.07727211713790894 -0.029031258076429367 0.7686408149943149 0.35587433604331664 -0.5315493904338561
-0.09652090072631836 0.05002378672361374 0.09395550191402435 0.8386040944404879 0.04175499522317698 0.5431387420922594
0.00273582199588418 -0.17430557310581207 -0.013011517934501171 0.021252879538275787 -0.9954507415782625 -0.09287699501286063
-0.010121328756213188 -0.15248017013072968 -0.09108468890190125 -0.670445580856696 -0.42065632268376374 -0.6111881717571935
0.00030633530695922673 0.0812731459736824 0.012574303895235062 0.976546552842448 0.13016766698287124 0.17150279474040223
0.06112437695264816 -0.17688040435314178 -0.03556664660573006 0.3803554678144891 -0.6766636991560251 -0.6304410807903508
-0.12656570971012115 -0.2598154544830322 -0.007193828467279673 -0.5811877298363776 0.43936510005563745 -0.6849665185545477
-0.006252014543861151 -0.16980241239070892 -0.04935844987630844 0.02134536505070932 -0.9347186156005507 -0.3547470719268052
-0.023925747722387314 0.33316290378570557 0.04528941586613655 0.2685802911656213 -0.05604464813556236 0.9616255116274481
-0.09173832088708878 0.35092300176620483 0.030078765004873276 -0.8152105751906026 -0.1254707703001586 0.5654102969505347
0.062374647706747055 -0.4186458885669708 -0.02661232091486454 -0.36680900715469394 -0.5698814828464769 -0.7353137070522271
-0.010204331949353218 0.1952395886182785 -0.026036987081170082 0.7848795379646346 0.2553883583763 -0.5645714279790294
-0.05462763458490372 0.08705221861600876 -0.04458805173635483 -0.14911448487502743 0.23774151317385178 -0.9598144838010431
-0.0646536648273468 -0.1341489851474762 0.08541309833526611 -0.23836350522958563 -0.11346699538577315 0.9645247950844966
-0.11802031844854355 0.16514721512794495 0.06390994042158127 -0.8330261638700807 -0.20659982036503066 0.5132094353507491
-0.10338584333658218 0.044249482452869415 0.004297066479921341 -0.9051420099474148 0.23430334773026693 -0.35471098526933664
-0.08359498530626297 -0.2431466281414032 0.04363765940070152 0.41054937814773035 -0.3556734915554635 0.8396103712480316
0.04895279183983803 -0.2956302762031555 -0.0020099736284464598 0.28972986845150983 -0.08023473348392955 0.9537394774621808
0.06648185849189758 -0.15475258231163025 -0.07362011075019836 0.7190960384967531 -0.5379080281598401 -0.439949816069366
-0.14882244169712067 0.09119805693626404 0.1005663052201271 -0.7051700947351713 -0.3368058346697627 -0.6239366692410329
-0.1470087766647339 0.20244844257831573 0.09708019345998764 -0.6682009820814775 0.277184061490904 -0.6904175863930145
-0.1583322137594223 0.1259969025850296 0.14446115493774414 0.20446057043889182 -0.29766915671852556 0.9325175324219298
-0.13281048834323883 -0.29333046078681946 0.02570633590221405 -0.6633308247556314 -0.1523642346919227 0.7326509106769462
-0.1123824343085289 0.029833514243364334 0.043164387345314026 -0.9348055570633192 0.2933227911357884 0.20025061968405516
-0.06798826158046722 0.07245450466871262 -0.0420563630759716 -0.48098439338784005 0.17717174481090414 -0.8586408947621768
-0.02537396177649498 -0.04653559625148773 0.05905834585428238 0.7450705225236846 0.1194611283487786 0.6562003926240219
-0.12193179130554199 -0.03537411615252495 0.001575192087329924 -0.8943141243545581 -0.11672819787349513 -0.43194533774674093
-0.12256387621164322 0.1662365347146988 0.029747439548373222 -0.9756969252017593 -0.1857715018804175 -0.11620868831944763
0.024504469707608223 -0.23003411293029785 -0.010992106050252914 -0.9342304100732133 0.04988891193830791 0.3531637543124258
-0.11162656545639038 -0.03321997821331024 -0.015003695152699947 -0.8512347748448911 -0.14590153242515688 -0.504095329209425
-0.046352557837963104 -0.06234199181199074 -0.0752381905913353 -0.34462950411954074 0.0015946458336470904 -0.9387374297400657
-0.0492389053106308 0.18994349241256714 -0.084892638027668 -0.3893338990117223 -0.8498245784225266 0.3552707432217085
-0.013964535668492317 0.029338398948311806 -0.06582982838153839 0.41406115304341273 0.4015841520768184 -0.8168742438962697
-0.0575968399643898 -0.09804344177246094 -0.06508985161781311 -0.6342027454308796 -0.15375446662990278 -0.7577245156910849
-0.01986124739050865 -0.18652302026748657 0.08720335364341736 -0.012409017104135866 -0.35102300066312364 0.9362846091333372
-0.15587776899337769 0.15972790122032166 0.11324643343687057 0.10327924476123382 -0.7367377077423625 -0.6682446764412557
-0.08801519870758057 -0.1479514241218567 0.003059138311073184 -0.44043309016880017 -0.08125187872169556 -0.8941011269921073
-0.006987179163843393 0.08144616335630417 0.03593864664435387 0.891251884862607 0.15192853211096766 0.427302935701894
-0.12359388917684555 -0.0678383931517601 0.02519840933382511 -0.9846276554556652 -0.13693414997360762 -0.10843163137611354
-0.04857002943754196 0.22264444828033447 0.07374928891658783 0.7548522587405286 0.38406685607038443 0.5316866723386364
-0.13654960691928864 -0.4180845022201538 0.0035573425702750683 -0.45474625288808346 -0.8903008412148593 -0.023880067344154078
-0.1671905219554901 0.19447366893291473 0.1286269724369049 -0.6211217160782603 0.7643911696791185 0.17295650763294873
0.03236228972673416 -0.17822712659835815 0.020021852105855942 -0.10644437491533375 -0.9770294260336541 0.18461607652973352
-0.15505351126194 0.09806615859270096 0.1273937076330185 -0.6300990287946949 -0.6488800072531549 0.4265324725025378
-0.08111049979925156 -0.25960543751716614 0.026375144720077515 0.8666441203806019 -0.4232540034234795 0.2641666466375532
-0.1060110330581665 -0.29730820655822754 0.03250886872410774 0.37149089743629526 -0.46601086945080444 0.8030120688231785
-0.04913591220974922 -0.020152848213911057 -0.07397978752851486 -0.3066142171353361 0.056785962053923035 -0.9501384511554594
-0.03480065241456032 0.3460443913936615 -0.023787908256053925 0.31743126266744104 -0.06589158819906887 -0.945989266369317
-0.024555305019021034 0.025604043155908585 0.06394311785697937 0.7049620575162933 -0.11754568085665215 0.699436566369203
-0.013001414947211742 -0.02032574638724327 0.04140135645866394 0.7370400925765038 -0.0002533141929856372 0.675848975560915
0.011794598773121834 0.012888628989458084 -0.0309167318046093 0.9421525944471149 0.3252809336973453 -0.08087523075425328
0.013274089433252811 -0.17017348110675812 -0.08067109435796738 -0.43236387260191356 -0.8426222556755534 -0.32101279711082975
-0.026527615264058113 0.12161899358034134 0.060532692819833755 0.741258363654558 0.04185656815729393 0.6699134765133934
-0.0007468251278623939 0.38020914793014526 0.026318181306123734 0.8354776477416245 0.3157425183613878 0.4497596716280048
-0.1441178321838379 0.12324406951665878 0.1367100477218628 0.6951013107653037 -0.12759770057128408 0.7074976993469857
-0.021896569058299065 0.13756641745567322 -0.0270428154617548 0.7564177681333213 -0.03744121699861092 -0.6530163208694466
-0.15131086111068726 0.10251574963331223 0.10210741311311722 -0.4351774099515729 0.07773213412031743 -0.8969829079714629
-0.022401824593544006 0.09274128079414368 0.05871058627963066 0.7176887176849257 0.06885045886544469 0.6929520321218379
-0.08978818356990814 0.03141108900308609 0.07513222098350525 0.6840127927328762 -0.0856181451858712 -0.7244280727530528
0.07067622989416122 -0.2707974910736084 -0.033987317234277725 0.800991242516398 -0.2696429433753882 -0.53451446425695
-0.12438974529504776 -0.3463064730167389 -0.02377481944859028 0.24107398792109913 0.013637174735346425 -0.9704109231727842
-0.11053557693958282 -0.2912490665912628 -0.02028629183769226 0.2088502664051825 -0.013326525164209489 -0.9778568248724002
0.026929575949907303 -0.3239854574203491 -0.030973412096500397 -0.6701167357310732 -0.0940358428487437 -0.7362749627366515
0.024400744587183 -0.256468802690506 -0.0066865128464996815 -0.8265907090093756 0.04063609348359924 0.561334577311758
0.005018315743654966 -0.000871588010340929 -0.06250253319740295 0.713319237617483 0.32106974123077964 -0.6229686079657732
-0.09460203349590302 -0.4174204170703888 0.054173845797777176 0.18365080245027085 0.9706261513913199 0.15542604992293374
-0.008648357354104519 0.3428608775138855 -0.009458630345761776 0.7125436900410831 -0.04241324340080843 -0.7003446341386936
-0.03384744003415108 0.36818698048591614 0.049158308655023575 0.20949654881242225 0.016470600983469637 0.9776706579103864
-0.10527767241001129 -0.20831573009490967 0.02535523660480976 -0.8084443016360675 0.5594218645555967 -0.18293438334362097
-0.060994502156972885 0.31622514128685 -0.01767304353415966 -0.1650289260040534 -0.17802281066775316 -0.9700893425164004
0.03156036511063576 -0.177951842546463 0.01880403235554695 -0.10644437491533372 -0.9770294260336541 0.18461607652973352
-0.10137619078159332 0.057338207960128784 0.07637600600719452 -0.28113209424538 0.8570767757280446 -0.43172230205634055
0.005295528098940849 0.1282474547624588 -0.1438901126384735 0.8820485037009295 0.020277950822015483 -0.47072204306725585
-0.0018423773581162095 0.38548359274864197 0.004575133323669434 0.789128592730459 0.539914064661712 -0.292863222197179
-0.06550569832324982 0.011279750615358353 -0.0632845014333725 -0.44997747748511063 0.1483725516027143 -0.8806281029396216
0.05428200960159302 -0.2843037247657776 -0.00306978658773005 0.5075357419422301 -0.08485245842323504 0.857442435939978
-0.0120761189609766 0.33567067980766296 0.04079018533229828 0.5093159332832018 -0.025520757799908967 0.8602011224272957
0.012499922886490822 -0.18986046314239502 0.05596505105495453 0.18707762905680894 -0.9275293186183617 -0.32356038665114834
0.0655038133263588 -0.1523992270231247 -0.07866726815700531 0.7280879345335259 -0.548593223758248 -0.4110151267693649
-0.03178704157471657 0.3614705204963684 -0.022266285493969917 0.3928609681891566 0.033481546101138876 -0.9189881640936165
0.0966494232416153 -0.11665191501379013 -0.04610186442732811 0.9309642750345896 0.35759424782469923 0.07370123833429626
-0.033474989235401154 0.3015315532684326 0.03407657891511917 0.23925864795984694 -0.4476921358492243 0.861584035875309
-0.019676025956869125 0.22109083831310272 -0.026994025334715843 0.9524128200627182 0.30157103977428307 -0.04432525408430472
0.012167135253548622 -0.38428738713264465 -0.028119685128331184 -0.6349825696695319 -0.08223537659945179 -0.7681370184097525
-0.09971780329942703 -0.162150576710701 0.05250421166419983 -0.9847045368757185 0.17036533720646746 -0.036505163126654375
-0.1156100407242775 0.16987775266170502 0.06864260882139206 -0.7877268967631322 -0.11294774835690673 0.605581656143109
-0.03752314671874046 -0.15065723657608032 -0.06363743543624878 -0.5354397534541647 -0.5179556138490945 -0.6671028799991432
-0.014560490846633911 0.3031167685985565 -0.006977378390729427 0.5148826934961962 -0.4728264415643493 -0.715074099723726
-0.04755854234099388 0.18054181337356567 -0.1555168628692627 -0.8234257059900167 0.23780555860572497 -0.5151879492098604
-0.09458310902118683 0.3744511604309082 0.021365594118833542 -0.7919474547796694 0.1930362892588332 0.5792721466609486
-0.09708089381456375 -0.191727876663208 0.04260068014264107 -0.9655801505026242 -0.2561236731231567 0.04533913344156512
0.02665043994784355 -0.17763887345790863 0.014539279043674469 -0.05528976778138113 -0.9959794683461083 0.07048361661893103
-0.08528129756450653 -0.26615655422210693 0.028609631583094597 0.8162547548987904 -0.41675894586540096 0.40005019203379405
-0.11964358389377594 0.23972713947296143 0.09801705926656723 -0.7370091595318619 0.6306146120743726 0.2431927420883016
0.05753570795059204 -0.0751141905784607 -0.01552500482648611 0.703764885812826 0.5077535426558322 0.49689166366252535
-0.11151989549398422 0.005542009603232145 -0.007649389561265707 -0.8843029846622119 0.23110029111292732 -0.4057103483583136
-0.008754595182836056 -0.17610909044742584 -0.023153768852353096 0.16660957972090468 -0.9840752814744619 0.06194423569777961
-0.10376138985157013 -0.4236595034599304 0.060418564826250076 0.14771606737106568 0.9766485983127839 0.15600473984498398
-0.1273583471775055 0.2253023236989975 0.11085757613182068 -0.5698302683045909 0.7742048304202221 0.2755001740070466
0.009931398555636406 -0.03185953199863434 -0.07068876922130585 0.41549722765674035 0.36297109056932686 -0.8340347961688868
0.01873726025223732 -0.1553061455488205 -0.10584365576505661 -0.20900709778980908 -0.5405965578202727 -0.8149057581992863
-0.14481161534786224 -0.3965980112552643 0.006045290268957615 -0.6467922411593412 0.34803501397408093 0.678624657542104
-0.11169262230396271 0.12402372807264328 0.0017748980317264795 -0.8561119479240111 -0.12022872511656486 -0.5026105711966282
-0.059693194925785065 -0.18909570574760437 0.07776669412851334 -0.42311535175358067 -0.3817977657615871 0.8217078952826873
0.03839300945401192 -0.10657840967178345 0.021286921575665474 0.772100128146809 0.3307260985453317 0.5426616255611456
-0.09692281484603882 0.22305481135845184 -0.045780181884765625 -0.7808068992202045 0.2322927373111981 -0.5799833362456202
-0.09801015257835388 0.3641189932823181 0.019395433366298676 -0.9227637045447997 -0.018966304400661327 0.384899239895507
-0.040258996188640594 0.2547239661216736 -0.030577009543776512 0.732302598182885 0.6591535342980237 -0.17102491899433908
-0.11904145032167435 0.14050069451332092 0.044545728713274 -0.9803758015339541 -0.14047364898275125 0.1383128399973335
-0.12669463455677032 0.06286804378032684 0.10628024488687515 -0.6078954286186492 -0.7188484857100321 0.3372239648318941
0.01932215876877308 -0.24998357892036438 -0.0245318915694952 -0.9980089894408544 2.0916945315226435e-05 -0.06307183648607424
-0.06941334903240204 -0.04972796142101288 -0.06491445749998093 -0.5513151662686592 -0.14508849815071656 -0.8215843931980027
-0.11461963504552841 -0.042650025337934494 -0.007504633627831936 -0.8403276305600881 -0.18990628508167595 -0.5077253944838147
-0.10064220428466797 0.027609899640083313 -0.0155689911916852 -0.853051303003411 0.2707449006031949 -0.44609491505905896
0.026934588328003883 -0.20831884443759918 -0.010266239754855633 -0.835993419198077 -0.0630662258244147 0.5451033426954675
0.0219122227281332 -0.05157861113548279 -0.07529206573963165 0.3197953148657221 0.516974697087948 -0.7940202259141502
-0.050601933151483536 0.36894428730010986 -0.029792064800858498 0.22675158987387206 0.11281170900932817 -0.9673971443001401
-0.09661763161420822 0.01764242723584175 0.07620114088058472 -0.20888333961459954 0.5433720362833391 0.81308952804519
0.09113127738237381 -0.42805150151252747 -0.03178972750902176 0.36255714812214357 0.9286597503736365 0.07837973195612156
-0.08074706792831421 -0.08759923279285431 -0.03230954334139824 -0.8163851918432118 -0.5225139393787499 -0.2459560970864972
-0.10831782221794128 0.06937294453382492 0.013399997726082802 -0.950110522043317 -0.05372271291125064 -0.30725212126205265
-0.08617224544286728 0.2692464292049408 -0.014095678925514221 -0.698115733246477 0.5823337565804146 -0.41655950228109845
-0.13123059272766113 0.09284001588821411 0.12052547931671143 0.707128541379996 -0.16004736787952437 0.6887336684093752
-0.013036798685789108 0.13131223618984222 -0.014297911897301674 0.874913663213438 -0.0803874883811403 -0.47756039789142374
0.04408876225352287 -0.15833769738674164 0.03700017184019089 0.8356118534045869 -0.13926756171960253 0.5313731049859675
-0.04536945000290871 0.23291906714439392 0.05627918243408203 0.8022721375242701 0.4421342752272335 0.40109437794804315
-0.11418359726667404 0.04085538163781166 0.08974198997020721 -0.8089822783602195 -0.5684830197220813 0.14958184912205186
-0.10942075401544571 -0.4046023190021515 0.028186677023768425 0.7719653811344037 0.6013826024081219 0.20593303729817045
-0.16035926342010498 -0.3981853127479553 -0.02803516574203968 -0.9959284855643012 0.05860518726092681 -0.06849732598948101
-0.1161949411034584 -0.23759916424751282 0.0012550887186080217 -0.530813647952657 0.4748387753928494 -0.7019722277487993
-0.006520295049995184 0.14364607632160187 0.005091359838843346 0.9690650682870608 -0.19695004437332692 -0.1487399524241514
-0.11698248982429504 -0.03624938055872917 -0.006138836964964867 -0.863156446666944 -0.14131405400559163 -0.48475899859394045
-0.08069080859422684 -0.11924602836370468 -0.0058439793065190315 -0.3847006746192776 -0.24694070796895692 -0.8893962433557178
-0.025891566649079323 0.24274131655693054 -0.07560670375823975 0.6838610871588651 0.6947992386723602 -0.22268370261472714
-0.0817377045750618 -0.261432409286499 0.024317245930433273 0.8666441203806019 -0.4232540034234796 0.2641666466375532
-0.013907899148762226 0.14954692125320435 0.042482130229473114 0.8949003252397482 -0.13769669755637617 0.42449149269197495
-0.034314580261707306 -0.1918536126613617 0.031774699687957764 0.41537543385538056 -0.7352125620204977 -0.5356544946107613
-0.009980798698961735 0.37195059657096863 -0.010803273878991604 0.6619322355559392 0.10212441802227086 -0.7425741166883808
-0.02102254144847393 0.058446601033210754 -0.05467863380908966 0.44027014554541616 0.42718095425342373 -0.7897332658971334
-0.07757202535867691 -0.08813217282295227 0.0834289938211441 -0.252719660801348 -0.018432701567038513 0.9673639483448782
-0.039645981043577194 0.22189518809318542 0.05948689207434654 0.7884113624713759 0.47089524361114554 0.3958095414090329
0.0097230589017272 -0.06188010796904564 -0.0855807214975357 0.11074692822229049 0.5673524871847547 -0.81599403991365
-0.09258480370044708 0.38693925738334656 -0.009580718353390694 -0.5528753796735031 0.7599740313705292 -0.34171374890879913
-0.03894194960594177 -0.14751797914505005 -0.007884928025305271 -0.9439257653834217 -0.31228107467819555 -0.10716659854242327
-0.04961589351296425 0.05279068276286125 -0.05728752538561821 -0.3355415539349354 0.37325918556843896 -0.8649216415211928
-0.13632096350193024 0.06838001310825348 0.10721661895513535 -0.521776998336835 -0.7949226245876956 0.3095913192019636
0.012925880029797554 -0.03423801064491272 -0.07031690329313278 0.4154972276567403 0.36297109056932686 -0.8340347961688869
-0.0662388801574707 -0.17123135924339294 0.0764349102973938 -0.4989090447585295 -0.13469271594097262 0.8561236110110363
-0.1324937492609024 -0.41328656673431396 0.04706035181879997 -0.19970390721553136 0.8542623343136803 0.479952303480036
-0.139601469039917 -0.3017520010471344 0.01393998321145773 -0.928532222577041 -0.15145756423989956 0.3389520878688565
-0.07190797477960587 0.26623207330703735 -0.03608424589037895 -0.27261884440041484 0.8304781596615795 -0.48578286507749374
0.017454680055379868 -0.35720181465148926 -0.027066366747021675 -0.5453556313609277 0.22887201395744491 -0.8063527990712174
-0.026875020936131477 0.019921675324440002 0.06543266773223877 0.7019165748091545 -0.12065212046816015 0.7019659449251946
0.08668987452983856 -0.16097116470336914 0.005038858391344547 0.7512412812185949 -0.4235704614177274 0.5061863309172001
-0.0986422672867775 0.27246010303497314 0.04731108248233795 -0.5430369552236364 0.8245858436433379 0.15864757081168057
-0.08606132119894028 -0.1379965841770172 0.0012427747715264559 -0.45484786334859095 -0.17269500373120036 -0.873664613506523
-0.15325212478637695 -0.3906802833080292 -0.03963152691721916 -0.5747061840983284 0.3858795961950741 -0.7216714898064527
-0.019429057836532593 0.11564778536558151 -0.024505797773599625 0.695839742402868 0.09867317454951983 -0.7113864333237109
-0.1023443415760994 0.25016194581985474 0.10369854420423508 -0.2284966764417123 0.7465782956986808 0.6248280701494968
-0.03792202100157738 0.32283222675323486 0.044078532606363297 0.015924341405461034 -0.2712261544550928 0.9623839090977699
-0.0854215994477272 0.3039706349372864 0.0051262411288917065 -0.94586624977147 -0.11426476577100565 -0.3037772223958741
-0.039941344410181046 0.13316714763641357 0.07316125184297562 0.526535641330391 -0.16602194121778296 0.8337847044909573
-0.13126611709594727 0.1720557063817978 0.12373583018779755 0.7029407170738042 -0.6941845065278993 0.15486193585378888
-0.11774551868438721 -0.36207062005996704 -0.010324290953576565 0.9700225376813274 -0.07950236435344542 -0.22964244044272342
-0.03467177972197533 0.2319081574678421 0.02950809895992279 0.8651224666435519 0.43490456414486783 0.24984222580368423
0.02252037078142166 -0.1772027462720871 0.01094554178416729 -0.05076111617203599 -0.9983616718150702 0.026406085199952887
-0.08232228457927704 -0.19034893810749054 0.022751444950699806 -0.39220873951855134 0.17196054070529534 -0.9036602664085722
-0.11595018208026886 -0.35814687609672546 -0.0010386636713519692 0.9889840231989118 -0.10004669322171829 0.10909290092711825
-0.09474655985832214 -0.07777843624353409 -0.014499341137707233 -0.663678006545478 -0.3750150380203135 -0.6472211560868842
-0.03600815683603287 0.18534420430660248 0.08563292771577835 0.5371822428626931 0.2640447786028448 0.8010715279209351
0.01226438395678997 0.009070925414562225 -0.014066329225897789 0.9721768471245764 0.21440162957202186 0.09436164025587758
-0.0012826964957639575 0.17599020898342133 -0.021282054483890533 0.8243763853327946 -0.039665773428779194 -0.5646505129050468
-0.04199858382344246 -0.13350997865200043 -0.007445001974701881 -0.726443555666438 -0.6539007340051662 -0.21140858662364645
-0.055884912610054016 0.2349463403224945 0.07667254656553268 0.8050127657850935 0.29648848239643005 0.5138570100030707
-0.1177523210644722 0.011443057097494602 0.01111749280244112 -0.9278796902944937 0.25947591531713177 -0.2677900851587511
0.036794643849134445 -0.0635341927409172 -0.07809913903474808 0.4016826073134385 0.5992965531668168 -0.6924555757189415
-0.1064944863319397 0.06834743916988373 0.0037610800936818123 -0.9121308300291207 -0.04457963115162292 -0.40746779676039785
-0.09267932921648026 -0.14811663329601288 0.02464093267917633 -0.9241316537152122 -0.3022442675841704 0.2337286660084633
-0.019231487065553665 0.017811764031648636 0.05455229803919792 0.7489480028474985 -0.13242917601037252 0.6492606582659673
-0.13076697289943695 0.2016633301973343 0.04706810414791107 -0.9976993980562442 -0.026051071556687556 0.06258796041537397
-0.10923711210489273 0.019660718739032745 -0.002573994919657707 -0.8801472127382073 0.285385664109642 -0.3793361393670046
-0.028609035536646843 0.03123428300023079 -0.06843601167201996 0.1368842710804148 0.28708370542641637 -0.9480747029688231
-0.011661507189273834 0.16880342364311218 -0.03162149712443352 0.6486400774708911 -0.18180826132516523 -0.7390614358850534
-0.042578309774398804 0.22108273208141327 -0.10917975008487701 -0.41370906280594405 0.7544633913260456 -0.5095388135373297
-0.11534509807825089 -0.41320717334747314 0.048591725528240204 0.0655378667490809 0.9265331769423856 0.37046060525652375
-0.04192023351788521 -0.11239952594041824 -0.07356869429349899 -0.4378326553653017 -0.09788792826494469 -0.893711653384785
0.040098607540130615 0.030736034736037254 -0.05907408893108368 -0.21935881424351683 0.8395734972749561 0.49698898708842393
-0.07457435131072998 -0.0972134992480278 -0.028545353561639786 -0.8383041004757503 -0.5063636002625272 -0.20209438254121437
-0.03938979282975197 0.08970170468091965 -0.042304862290620804 0.034902398610554046 0.3158791598816318 -0.9481572543221428
-0.020192541182041168 0.3257840871810913 0.04339892044663429 0.2946526320413426 -0.07157871907578431 0.9529198882417027
-0.07892439514398575 0.10965617746114731 0.07964647561311722 -0.1542800337338287 -0.21144719479475635 0.9651361328872301
-0.08964980393648148 -0.41973745822906494 0.049715038388967514 0.34523770670638265 0.9252741562905136 0.15709443519423566
-0.10357947647571564 -0.09180133789777756 -0.0007875008741393685 -0.6698787376597023 -0.31626064494317957 -0.67174525029327
-0.1082703173160553 0.004255952779203653 0.06579550355672836 -0.8631903790248595 0.06650096799052964 0.5004797606449655
-0.05316224321722984 -0.010249768383800983 -0.0721554309129715 -0.3372747578508855 0.12088148625718169 -0.9336130911661862
-0.10788735747337341 0.1686711311340332 -0.014774855226278305 -0.8693328318159773 -0.19324230064453113 -0.4548822273604701
0.0062716021202504635 0.020598335191607475 -0.04466928914189339 0.9082235679012206 0.21210989235068473 -0.3607483115355606
-0.10870920121669769 0.2029116451740265 -0.03436139598488808 -0.9262988507601951 -0.0233688163418056 -0.37606427310118795
-0.002213822677731514 0.35997071862220764 -0.003185434266924858 0.8990238630917732 -0.057468306978338164 -0.4341122980112267
-0.06456342339515686 0.30317968130111694 -0.015191704966127872 -0.2563979506364599 -0.07467941239446099 -0.9636820410663683
-0.10161428898572922 0.19874513149261475 -0.044410284608602524 -0.8056222198731696 -0.15655325383294874 -0.5713702105998726
0.003369745798408985 0.034216929227113724 0.023157719522714615 0.9338706452474018 0.02873887136076248 0.35645433819510575
-0.09413070231676102 0.041199225932359695 0.09530345350503922 0.6954458118655683 0.06413810591767836 0.7157104345529226
-0.1783558577299118 0.1679108440876007 0.12031029909849167 -0.7856314502054023 0.12094977152862066 -0.6067572638340072
-0.10747213661670685 0.06423497945070267 0.08376657962799072 0.3130164851553488 0.8301694283839613 -0.4613452071904922
-0.0001666951138759032 0.35145238041877747 0.011807375587522984 0.9718500811268038 0.17413342062910195 -0.15869773670041126
-0.10262347757816315 0.08633396774530411 2.0700466848211363e-05 -0.9120499357820522 -0.007070679134466555 -0.41001819488472935
0.05035118758678436 -0.15096698701381683 0.03143419325351715 0.666130705148653 0.17367716802036776 0.7253317344267954
0.08126074075698853 -0.40944939851760864 -0.024527985602617264 0.7705355436951102 0.4026053273305113 -0.4941497003010046
-0.11992527544498444 0.14779701828956604 0.022826874628663063 -0.9773104543239407 -0.0886357469667991 -0.19237458311526057
-0.01602659747004509 -0.17931251227855682 -0.05193842574954033 -0.012026640675722636 -0.8106959113177394 -0.5853439153922736
0.020740848034620285 -0.26756608486175537 -0.011848267167806625 -0.9012434982469076 -0.08769062874913985 0.42434715799361367
0.044294774532318115 -0.2359999716281891 0.0018274533795192838 0.0255393107001083 0.09674508077960144 0.9949814736737121
3.165024463669397e-05 -0.12680035829544067 -0.10491015762090683 -0.6048066056369668 -0.03954083907010197 -0.7953901506955708
0.00449261162430048 0.3332754969596863 0.006855889689177275 0.9078429165466182 0.11547379609439745 -0.40309681379499845
-0.08688624203205109 0.17892546951770782 -0.05061691999435425 -0.4766928362402281 -0.3876601487666255 -0.7889762663955646
0.0045891134068369865 0.04975231736898422 -0.0236137043684721 0.9370349169283202 0.26773806282772106 -0.2242362463349655
-0.17103640735149384 0.1649954617023468 0.15053008496761322 -0.1487439642616996 0.20697214767598715 0.9669735069701256
0.009357012808322906 -0.03690527752041817 -0.07275685667991638 0.33092607109739597 0.3734213471074647 -0.8666281976675394
-0.11851321905851364 -0.2642803192138672 -0.013697110116481781 -0.31717670565965295 0.43445677216867107 -0.8429983692176809
-0.12191490828990936 0.17186735570430756 0.06091558560729027 -0.8707723517423378 -0.23862113958005296 0.42990169014163626
0.005306642968207598 0.3336219787597656 0.018548686057329178 0.9642913579486387 -0.08201534444163086 0.2518246617424334
-0.10245660692453384 -0.07986164093017578 -0.008674543350934982 -0.64439685109329 -0.3274443710729308 -0.6910375403360554
-0.17644284665584564 0.18502001464366913 0.1261274665594101 -0.835831927625176 0.546456051276667 -0.05263813052811929
0.027248721569776535 -0.02449042536318302 -0.03339551016688347 0.8687942016065446 0.47691031875808876 0.13324107143409225
-0.1004851907491684 0.16081681847572327 0.07966122776269913 -0.48755696923060793 -0.07600456775136794 0.8697766997543632
-0.004330023657530546 0.09442810714244843 -0.11147989332675934 -0.7173857196853126 -0.6829625739578559 -0.13754945206887048
-0.06153158098459244 0.3378039598464966 -0.02530701272189617 -0.17147152663201473 -0.3562080506206735 -0.9185386982743329
0.005368737503886223 0.0003588080871850252 0.012761317193508148 0.9315412381548165 0.13805983406747624 0.3364080912140083
-0.02263500913977623 0.09921470284461975 -0.03138023242354393 0.5896063546766205 0.25577927284208557 -0.7661209500524844
-0.09998337924480438 0.06905586272478104 -0.010908301919698715 -0.8732396466626478 -0.024552310351605395 -0.48667206983028377
0.07482228428125381 -0.13460642099380493 0.010801252909004688 0.6007994440229502 0.37518501107641744 0.7058868432867287
-0.03393351286649704 -0.0037120969500392675 -0.07641249895095825 -0.1359440311467608 0.15596365583731736 -0.9783632037507478
-0.14949244260787964 -0.3725021183490753 -0.012884270399808884 -0.9231693362105694 0.3461754513694899 0.16709558207704625
-0.0034171349834650755 -0.07662099599838257 0.04726184532046318 0.5903728037796725 0.36501751792957143 0.7198764922970213
-0.1347825974225998 0.18478897213935852 0.09797383099794388 -0.06362865873541335 -0.4191271629286935 -0.9056952109196983
-0.10556063055992126 -0.21160529553890228 0.017786379903554916 -0.549793831652778 0.7086738817629271 -0.442162947321032
-0.10674122720956802 -0.41105952858924866 0.011494912207126617 0.8874455007060627 0.4161020976754634 -0.19824108450733682
0.0020801275968551636 0.35938403010368347 0.01801605522632599 0.9813133630198961 -0.13111482174030167 0.1408296384948516
-0.07344614714384079 0.26961031556129456 0.05877230688929558 0.5019458206224029 0.7043813214002104 0.5018937608918804
-0.0062996624037623405 -0.15346106886863708 0.08369884639978409 0.3539627464992915 0.19464515208304878 0.9147806506814873
-0.06656637787818909 0.17643560469150543 -0.055013373494148254 -0.016326790486610513 -0.3382565920008862 -0.9409122774628634
-0.11620892584323883 0.11228395253419876 0.024758733808994293 -0.9583683377361536 -0.2572760856063297 -0.12385130197105865
-0.11855257302522659 0.1314469426870346 0.02344745770096779 -0.9847328083669998 -0.11284422245141117 -0.13254236147352394
-0.09174429625272751 0.006309714633971453 0.07878994196653366 -0.30984700242912055 -0.05939571822329302 0.9489293881751307
-0.03050856664776802 -0.17509490251541138 -0.024941088631749153 -0.7329434229202281 -0.6525928635595755 0.19213665248747602
0.03573492169380188 -0.17790719866752625 0.021619359031319618 0.009758739378994408 -0.9889171193854417 0.14814755479633504
-0.07917322963476181 0.08886909484863281 -0.03227010369300842 -0.5520446896155994 0.04271307277865372 -0.8327197932564243
-0.16077305376529694 -0.4006907343864441 -0.024034885689616203 -0.9881699291037013 0.020795885637977768 0.1519464456830701
-0.030369071289896965 0.029722711071372032 0.06910447776317596 0.6430054530999573 -0.03914762616690548 0.764860412525851
-0.10781526565551758 0.029539672657847404 0.07063373923301697 -0.9782534668650341 -0.12267922398682524 -0.16724222722904636
0.03387327119708061 -0.26948168873786926 -0.044333916157484055 -0.5042035713254112 -0.24677183924996063 -0.8275762309394179
-0.008874878287315369 0.1085439994931221 0.03504854440689087 0.9256563004684575 0.09444352516170422 0.36638891080118585
-0.09199336171150208 -0.17443512380123138 0.06453894823789597 -0.13862992757421932 0.23762883185513684 0.9614126488932471
-0.04043896123766899 -0.10027122497558594 0.08286867290735245 0.3571008900711884 0.20555916897235094 0.9111664954122061
-0.09990543127059937 0.3715563714504242 0.01798422820866108 -0.8838958770988632 0.06260655861887424 0.46347437606143127
-0.049312058836221695 0.2936888039112091 0.03659796714782715 0.37800099599274034 -0.14084384342468947 0.9150291027054045
-0.08328130096197128 -0.003018175484612584 0.08179760724306107 -0.22970992156481823 0.0029031273373307034 0.9732548092798454
-0.0819404125213623 -0.0741913914680481 -0.044935815036296844 -0.8146439348086064 -0.3867055910924549 -0.43221990386536596
-0.10068684071302414 -0.1917433887720108 0.052836403250694275 -0.6183077636545947 -0.7856467169702763 0.02132476302987875
-0.013906922191381454 0.09800142049789429 0.04793993756175041 0.8371898462775391 0.07943756650493272 0.5411125893172002
-0.10997762531042099 0.06775107979774475 0.017800219357013702 -0.9748227876884753 -0.076700943453677 -0.20937406209123835
-0.06569051742553711 -0.06524275988340378 0.0846393033862114 -0.07359481179119093 -0.007992973793832469 0.997256193787409
-0.057380083948373795 0.023018401116132736 -0.06494075059890747 -0.3503193560046993 0.2091014907758622 -0.9129911912848694
-0.0018668761476874352 0.3863834738731384 0.022791041061282158 0.8188214215185596 0.5375840420197457 0.20133275299373846
0.013899886049330235 0.03128448501229286 -0.05568397417664528 -0.07006521898294776 -0.637526195393339 -0.767236088356228
-0.11079027503728867 -0.08010731637477875 0.047227803617715836 -0.8630976372770598 -0.31538061654669225 0.39445853423824606
0.052059050649404526 -0.17156808078289032 -0.0684840977191925 0.5663525945003778 -0.8082260216381952 -0.1612930148815699
-0.08424089103937149 -0.18366648256778717 0.026002665981650352 -0.4470630565114439 0.138364308615995 -0.8837363529944117
-0.10133340209722519 0.2638424336910248 0.024828914552927017 -0.756342970157919 0.5333611785986904 -0.3787758765503857
-0.04868169501423836 0.043498724699020386 -0.06045415624976158 -0.3002251329378294 0.3426625272558824 -0.8901950696151234
0.01648080162703991 -0.16647982597351074 0.0714242085814476 0.44554232451382775 0.06374631002033924 0.892988490981606
0.047950781881809235 -0.4113418161869049 -0.02550642192363739 -0.48423779786718796 -0.5779522865243334 -0.6568751096045818
0.0983513817191124 -0.42940762639045715 -0.02599344588816166 0.12188643644435211 0.9890712703925219 -0.08295612512057111
0.022149167954921722 0.08983215689659119 -0.09049585461616516 0.8972833175465671 0.42919194174534825 0.10332920784310716
0.05162119120359421 -0.37245291471481323 -0.002183235017582774 0.6870256663975329 0.3274406337603664 0.6486743135608466
-0.08569734543561935 -0.19011862576007843 0.024026693776249886 -0.5096578855070578 0.24774963173845668 -0.8239350458100043
0.0036018381360918283 -0.17639456689357758 -0.004613324534147978 -0.04773849732713462 -0.9971943620494584 -0.0576579584248431
0.034935880452394485 -0.3769817054271698 0.0041199601255357265 -0.0030893555852771625 0.046105570933629235 0.9989317955751292
-0.009741727262735367 -0.09846173226833344 0.06271281093358994 0.5518054772633142 0.3196364869950478 0.7702877588561763
-0.09885804355144501 -0.3008573353290558 0.02114276960492134 0.7230496630820642 -0.4449409462240206 0.5284190941763807
-0.06879261136054993 -0.07283413410186768 0.0846254825592041 -0.14106631410011417 -0.010656907771290193 0.9899427889241692
-0.11200935393571854 -0.04167987033724785 -0.011760407127439976 -0.8270631763877381 -0.20704439241514022 -0.522588865010412
0.025115488097071648 -0.06735697388648987 -0.0871632769703865 0.26203769754336176 0.5554109899887589 -0.7892115541892937
0.00604413403198123 0.04109037667512894 0.009252716787159443 0.9781322795421582 0.09091087642767262 0.18706270677185693
0.037608761340379715 -0.17794859409332275 -0.08925796300172806 0.11369188769201795 -0.9562891951945399 -0.26941627609928254
0.023041147738695145 -0.2770242691040039 -0.03174795210361481 -0.8489639113779397 -0.12747717380651236 -0.5128448569852038
-0.1261693686246872 0.22537986934185028 0.04774962365627289 -0.9511046637576486 0.30816358531526383 0.020859608435742538
-0.093358114361763 -0.012060638517141342 0.07749640196561813 -0.4633271833334368 0.0004473953652077942 0.8861871817069411
0.02411019243299961 -0.18102693557739258 -0.04081011936068535 -0.5900816549180313 -0.7283583359216643 -0.3482783011079235
-0.09751524031162262 0.20948444306850433 -0.049545709043741226 -0.7730444862462345 0.07798288514384026 -0.629540222629927
0.07286345958709717 -0.1896522045135498 -0.005785604473203421 0.7629827685933839 -0.22569560790208607 0.605738216891821
-0.04141092672944069 0.32831865549087524 -0.02134666219353676 0.11835392140141063 -0.3020529781984628 -0.9459156133875515
-0.1508241891860962 0.0844956710934639 0.1147679015994072 -0.6891955169627989 -0.7044397885090264 0.16962937176013695
0.03345393389463425 -0.05339950695633888 -0.07116582989692688 0.4365364312208871 0.6267633615363406 -0.6454483967387311
-0.07895397394895554 0.11342141032218933 -0.03348727896809578 -0.41349988798193443 -0.08648755852672292 -0.9063871936755364
-0.03654279187321663 0.06473557651042938 -0.05428280681371689 -0.016990577466193084 0.38430130888479025 -0.9230513659958488
-0.025276225060224533 0.033528782427310944 -0.06711461395025253 0.1506493989457126 0.3065140723219677 -0.9398690770878141
-0.04803697392344475 0.07435277104377747 0.0778055414557457 0.30428469714536277 0.0558813054741727 0.9509406410400478
-0.09844998270273209 0.3906140923500061 0.0036756217014044523 -0.665061345694219 0.7458311593556991 0.03780592807389228
-0.06283268332481384 0.1411735564470291 -0.0447840616106987 -0.05599348200747758 -0.21875627210122014 -0.9741716601241566
0.03303561732172966 -0.19337162375450134 -0.03850851207971573 -0.0865761842826191 -0.16936290645981825 -0.9817437395932529
-0.0061686960980296135 0.12705767154693604 -0.1116296574473381 -0.5503765260978182 0.3465116613460167 0.7596152631903346
-0.09744607657194138 0.09654361754655838 0.06589984148740768 -0.7280722795052368 -0.10336608293574429 0.6776623117117914
0.020759185776114464 -0.390822172164917 -0.0312594473361969 -0.24820035489774023 -0.18375709280601077 -0.9511203471023628
0.002197365742176771 -0.10457973182201385 -0.10374162346124649 -0.48925317020056996 0.22115610563410143 -0.8436357699798239
0.05221398547291756 -0.06808047741651535 -0.014814769849181175 0.7404899733772643 0.5291949082753702 0.4142793120385822
-0.127632737159729 0.22273503243923187 0.03342648968100548 -0.9401901246211389 0.3285018553702794 -0.09016130313594262
0.03752207010984421 -0.06677313894033432 -0.0807092934846878 0.40083646811984225 0.5910253192488877 -0.700013712602804
0.006199025083333254 -0.001951631042174995 0.011664407327771187 0.9239970862700013 0.15308580435318372 0.35041992105199543
-0.12929096817970276 0.21672499179840088 0.042218081653118134 -0.9660368230099667 0.2577278133069638 0.018687718876877403
-0.1040249615907669 0.013000094331800938 -0.01925213821232319 -0.850933105901359 0.2099477614089054 -0.4814922499484867
0.0020790935959666967 0.07827895134687424 0.007515425328165293 0.9826674098063432 0.17936559606292063 0.04682675147269728
-0.11941703408956528 0.01511540450155735 0.022661950439214706 -0.9613862493527823 0.2658737000722456 -0.07104685190269583
-0.1072935238480568 0.04796675220131874 0.04673805087804794 -0.9463756945683083 0.10890614374704759 0.3041586700794496
-0.0345095656812191 -0.1593102216720581 0.0017801611684262753 -0.6930384286494354 -0.43993417174319877 -0.571100394806156
-0.0009912960231304169 0.3079480528831482 0.019396137446165085 0.8838250299561232 -0.4543288553355743 0.11152850591900174
-0.13768962025642395 0.16582846641540527 0.11211453378200531 0.36138185738368317 -0.7187711710420176 -0.5939454157014818
0.06199450045824051 -0.06691140681505203 -0.04561658948659897 0.7733021240971959 0.6309048954182421 -0.06295107468552064
-0.00554008549079299 0.09550490230321884 -0.09364669024944305 -0.977320745293997 -0.2114273754398614 0.01194260158416673
0.011849082075059414 0.0834311693906784 -0.07573404163122177 -0.26213449199766004 0.6415081770917445 0.7209388093517756
-0.046076610684394836 0.35635092854499817 -0.028160547837615013 0.27343599013392345 -0.03360242552283822 -0.9613030928372502
0.03447912260890007 -0.06553570926189423 0.006873276550322771 0.6916390794775689 0.40978932060555784 0.5947336348795623
-0.03156006336212158 -0.13710185885429382 -0.07185646146535873 -0.46615224266682775 -0.2814700808366908 -0.8387351669332065
-0.15661782026290894 0.1226041167974472 0.14286161959171295 0.12758847953320157 -0.32506070381633057 0.9370468071152251
-0.03016265481710434 0.3727349042892456 -0.02303173579275608 0.4054005576358186 0.13583054219237442 -0.9039914002225313
-0.06250230967998505 0.2633863687515259 -0.04815109446644783 -0.16163527971390593 0.8631080647849284 -0.4784542871111339
-0.08431246131658554 -0.19303667545318604 0.021665118634700775 -0.43053260276875854 0.39905666747000157 -0.8095649783068032
0.020699575543403625 -0.3385816812515259 -0.007578632328659296 -0.8884378070479548 0.04932568770314011 0.45633895246892253
-0.0848107635974884 -0.2581728398799896 0.03530807048082352 0.7634801658366052 -0.4249340108041474 0.48634259821242337
-0.04580020159482956 0.1598234325647354 0.087179996073246 0.3368262231548169 -0.25720724785458204 0.9057552246861915
0.04226350411772728 0.050356488674879074 -0.06572546064853668 -0.12796626505741904 0.5284259912334844 0.8392798143623877
-0.003100173082202673 -0.05612214654684067 0.03782126307487488 0.6509200051723874 0.2754768971917215 0.7074006120862499
0.04862290248274803 -0.0981130301952362 0.007859599776566029 0.5889612486229997 0.4334051646653392 0.6821177397354855
0.023546433076262474 -0.2475987672805786 -0.008716673590242863 -0.8400723385251184 0.06210227365208938 0.5389079454342641
-0.12559236586093903 0.06605655699968338 0.0893220379948616 -0.5987022491780721 -0.3272677742425297 -0.7310618446967796
-0.1197337955236435 0.015066033229231834 0.02677135542035103 -0.9616580821620878 0.27410479300148405 -0.008960773736061826
-0.16619713604450226 0.13306598365306854 0.11444657295942307 -0.48649238338368367 0.002971719491538267 -0.8736797638682762
-0.09379110485315323 0.27513206005096436 0.023967938497662544 -0.7958457547100013 0.5714256217116864 -0.20025557061285745
-0.026938723400235176 0.01845611445605755 0.06474725157022476 0.6957847858269965 -0.1222821548882969 0.7077645133853175
-0.10800976306200027 0.029424933716654778 -0.0004384578496683389 -0.8811146395528463 0.30417065274600713 -0.3621010991059345
0.05106020346283913 -0.1758410632610321 -0.04415442422032356 0.2973935904646655 -0.6990414961526987 -0.6503061117713191
-3.343092976137996e-05 0.12657763063907623 -0.11133848875761032 -0.26282762906889134 0.4047525630599239 0.8758407390013596
-0.019267963245511055 0.19965769350528717 -0.10388541966676712 0.9861486654642269 -0.12487357149530989 0.10916684819637383
