ply
format ascii 1.0
comment VCGLIB generated
element vertex 392
property float x
property float y
property float z
property float nx
property float ny
property float nz
element face 0
property list uchar int vertex_indices
end_header
-0.018282467499375343 0.027269069105386734 0.04994882643222809 0.8008622855370157 -0.13759046365387456 0.5828279882743618
-0.023234697058796883 -0.026584194973111153 -0.07381336390972137 0.09908319775404831 0.01911450424503581 -0.9948955501208651
0.06243250519037247 -0.3196474015712738 -0.008963481523096561 0.9878771428572841 -0.14693420619301903 -0.05009081423331552
0.08704015612602234 -0.4017564356327057 -0.0024925859179347754 0.7576925487601922 0.49817532766372763 0.4215724664401383
-0.019023003056645393 -0.17915166914463043 0.01474839635193348 0.03882084348028537 -0.9599214478781014 -0.27756757017902633
-0.14506623148918152 -0.26325175166130066 0.006323414389044046 -0.9391273372725489 0.3235937805795029 -0.11544223472211877
-0.1320936530828476 -0.03684614226222038 0.052695684134960175 -0.8891458231183341 -0.05475082395814715 0.4543369372031333
-0.009559953585267067 0.3682468831539154 0.03674802929162979 0.6067491475147481 -0.0023408084010655035 0.7948899248362354
0.026176877319812775 -0.06635445356369019 -0.07376228272914886 0.32821738943656004 0.5599672530516141 -0.7607299263084627
-0.13234202563762665 -0.26625990867614746 -0.016816576942801476 -0.5132430758532905 0.30499982797048425 -0.8022198264980918
-0.02808060310781002 0.1140766441822052 -0.10782784223556519 -0.6265013561009138 0.4333062436182123 0.6478747950377376
-0.03340022638440132 0.16684144735336304 -0.16746406257152557 0.08723971246047228 0.5571688065389311 -0.8258039437964663
-0.02771398238837719 -0.19031323492527008 0.04163808375597 0.24710955700406453 -0.9333099303002639 -0.2605176401708176
-0.11122823506593704 0.04300208389759064 0.08459870517253876 0.6414369916687628 -0.5378965507903515 -0.5470154352180299
-0.06880564987659454 0.16258889436721802 -0.052129656076431274 0.011796487474795869 -0.3049433549325262 -0.9522974289400095
-0.14231745898723602 -0.31195685267448425 -0.018659060820937157 -0.6887039032879206 -0.014328817746847241 -0.7249011095162984
-0.05643870681524277 -0.08754081279039383 -0.06754370033740997 -0.4770069389409717 -0.03547014684806568 -0.8781834938580552
-0.05418131500482559 0.19218295812606812 -0.1327081024646759 -0.6638185087026803 0.6112212649760442 -0.4309913604062546
0.06779209524393082 -0.2827298641204834 -0.02892521396279335 0.7323772248259497 -0.30477795227702115 -0.6088792986808358
-0.1385352462530136 -0.4153357446193695 -0.03651929274201393 0.25824775807368033 -0.9235342245252898 -0.2835359440712758
-0.07544019818305969 0.15547718107700348 -0.048835787922143936 -0.31539145572059285 -0.21780760065559696 -0.9236276732293687
-0.06362830847501755 0.31619033217430115 -0.017308296635746956 -0.22839071468521763 -0.26393159022479323 -0.9371114112670849
-0.11511455476284027 -0.32138198614120483 0.015160794369876385 0.6640250521333363 -0.41280470644948863 0.623428427706398
-0.05917900800704956 -0.15329359471797943 -0.015216472558677197 -0.8792064209590819 -0.4173264238131542 -0.22985805474606552
-0.07870600372552872 0.3133586347103119 -0.012116902507841587 -0.3887269868926207 -0.19132445840763246 -0.9012692612512703
0.05798741430044174 -0.36441436409950256 0.0025920961052179337 0.7952997896186662 0.27322732701479485 0.54115161683659
-0.019362797960639 0.20843566954135895 -0.09093664586544037 0.9968922744957112 -0.046547989110467994 -0.06355373915466614
-0.11199022829532623 -0.10890588164329529 0.04555734246969223 -0.9023782856004302 -0.4303908375692282 0.021843914788484745
-0.10952039062976837 -0.11397124081850052 0.03745845705270767 -0.826428751123606 -0.4191448136014904 0.375943007046612
-0.028872376307845116 0.08854879438877106 0.059779092669487 0.7206291976869619 0.04858117742040678 0.6916165329440098
-0.053059279918670654 0.01569797657430172 -0.0674089714884758 -0.22966227132464498 0.18474772280282745 -0.9555749683039918
-0.11325207352638245 0.2576964497566223 0.07015632838010788 -0.7381839530887319 0.6595102479875123 0.14188264235537432
-0.08344972133636475 0.2720629572868347 0.0644492655992508 0.07554458556279882 0.942551970403994 0.32540559103938843
-0.0760776549577713 0.21929015219211578 0.1021643579006195 0.6371250792801105 -0.4758065356146851 0.6063660396317263
-0.014528093859553337 0.20977263152599335 -0.0031940359622240067 0.8306990107356321 0.5567216907982583 -0.0003354960067990521
-0.03497001528739929 0.1193958967924118 -0.12220452725887299 -0.9531777524388757 0.05463771833505137 0.2974338447297364
-0.10958173871040344 -0.12187773734331131 0.07400583475828171 -0.6759045311822113 0.02441114413296471 0.7365847953694639
-0.05462757498025894 0.34258490800857544 0.048096660524606705 -0.007910307579710061 -0.006015599392222958 0.999950618579711
-0.07828173786401749 0.2725274860858917 0.05810127407312393 0.42660395713906285 0.8043413696247652 0.41357469079169906
-0.03122655674815178 0.0436849482357502 -0.05939667299389839 0.18499705178267356 0.4056611613828591 -0.8951062020661172
0.028958911076188087 -0.052178673446178436 -0.008063603192567825 0.6988547252840365 0.5378813659994208 0.4714718539412201
-0.056740906089544296 -0.18893972039222717 0.021253181621432304 0.5122014996945887 -0.46189039285944133 -0.7240903871028569
-0.005527505651116371 -0.004933388438075781 0.025248132646083832 0.8663045373268086 0.02158256387370714 0.49904973854679213
0.012331705540418625 -0.17588095366954803 -0.07944631576538086 -0.27705234291847664 -0.9443038279749728 -0.17757330811582014
-0.124141164124012 -0.4206262230873108 -0.009400169365108013 0.587819969704229 -0.7411850421979019 -0.3242104508479239
0.04615095257759094 -0.061736416071653366 -0.025434138253331184 0.7607619493534113 0.5794149720777013 0.29243725232636536
0.024512123316526413 -0.17979027330875397 -0.0006645187386311591 -0.3593053743761883 -0.7728368826168861 0.5230896680411501
0.001008643303066492 0.042349204421043396 -0.00796394981443882 0.9853680754369163 0.16505396156668015 -0.04250818369317407
-0.10721664130687714 0.22183182835578918 0.12044871598482132 0.22815151812889747 0.1807673754342671 0.9566974656358646
-0.00025343173183500767 -0.004515502136200666 0.011080662719905376 0.9198326546592412 0.16287941543576115 0.35690080337516483
-0.12935073673725128 -0.4064192771911621 -0.029309993609786034 0.7387824940773341 -0.45416696421734937 -0.4979285039626379
0.07212404161691666 -0.16414836049079895 0.01394608337432146 0.6121527443539477 -0.5418845237765814 0.5758734066367
-0.05840527266263962 -0.04496152698993683 -0.06803662329912186 -0.332644032024571 -0.0438208383384165 -0.9420338009252931
0.061586637049913406 -0.3280757963657379 -0.01270289160311222 0.8709689419095066 -0.31105587124709067 -0.38033846399193993
-0.11637918651103973 -0.12136780470609665 0.027533723041415215 -0.8391921232367536 -0.48685701318772945 0.24233619004868542
0.06601988524198532 -0.11870461702346802 -0.09143920242786407 0.5261254304947065 0.14886664387439627 -0.8372757931102113
-0.12221948802471161 -0.3382992148399353 0.012646402232348919 0.5061711646531384 -0.18741680685258935 0.8418228391905654
-0.07238014787435532 0.19413119554519653 -0.06495019793510437 -0.3816964714981157 -0.5367856897825609 -0.7524419757632801
-0.06565415114164352 -0.07994963973760605 0.0848412811756134 0.2830466399949922 0.006449042543814301 0.9590844641833238
-0.09776944667100906 0.21896515786647797 0.11786232888698578 0.27241475791641023 -0.012871713161103268 0.9620938200974176
0.029220499098300934 -0.17813053727149963 -0.0765734389424324 0.08450869658037939 -0.9871065439937478 -0.13593730542792432
0.04744907468557358 -0.26927289366722107 -0.041369613260030746 -0.15009795082633076 -0.14010585482808963 -0.9786934936948477
-0.06865274161100388 0.20991989970207214 -0.08304638415575027 -0.8262063826162491 -0.07210841735348231 -0.5587337375449493
0.047644417732954025 -0.33330801129341125 0.005990993697196245 0.4263153255878698 0.1060061250699221 0.8983417749479141
-0.10508711636066437 -0.27145612239837646 0.03318921849131584 0.6537958133747972 -0.31121890179471684 0.6897056108074502
0.048927973955869675 -0.38156720995903015 -0.018508680164813995 0.3213774850959989 0.14508673931535188 -0.9357704580441777
0.0800464004278183 -0.12108921259641647 -0.0034606684930622578 0.732638266335958 0.48896622801859424 0.47344820050086794
-0.1245163157582283 0.1837843805551529 0.06238507479429245 -0.911645187826216 -0.20268336748500768 0.35752273222585557
0.034507956355810165 -0.14530475437641144 0.04216130077838898 0.7185914160523189 0.2530574066569077 0.6477563783645853
-0.033501725643873215 0.2415941059589386 -0.015406216494739056 0.8797239369916308 0.46348134500517635 0.10616420072763748
-0.00374834262765944 0.34986943006515503 0.012593382969498634 0.9894851780418191 0.14247045846951453 0.024924905196127032
-0.11205895245075226 0.046984270215034485 0.016324132680892944 -0.9632197291377468 0.04282760370984341 -0.26528013449988747
-0.041990797966718674 0.16061663627624512 -0.11643920838832855 0.2579737031310279 -0.5809727462709847 0.771958701345619
0.06074684485793114 -0.3004806339740753 -0.0034437591675668955 0.7486966201674863 -0.0740255885345965 0.6587667137856084
0.018645713105797768 0.04786628484725952 -0.0580628477036953 0.9210226283190368 0.3753748231939186 0.10397624842447413
-0.184335857629776 0.16896294057369232 0.14791247248649597 -0.4239968021797556 0.3284240467836889 0.8440167991429831
-0.12504038214683533 0.15466810762882233 0.02720862254500389 -0.9875678039376873 -0.09954290947358077 -0.12165953229906853
-0.013700190931558609 0.19985024631023407 0.023672612383961678 0.8039877928830846 0.5270612900178143 0.27533620441152223
-0.04455854743719101 0.013479500077664852 -0.06878496706485748 -0.07245182463183203 0.1678246171993032 -0.983150868874877
-0.0124368229880929 0.3192511200904846 0.036206167191267014 0.6040682981725036 -0.22381676533304917 0.7648578604543632
-0.11033014208078384 0.15903395414352417 -0.023298321291804314 -0.8492045611419459 -0.20158059488472013 -0.488074663449802
0.08623302727937698 -0.4214455187320709 -0.0022039248142391443 0.3450398180703307 -0.9072228169669065 0.24061231124076757
-0.15510819852352142 -0.4148738384246826 -0.005063432268798351 -0.45718363192313266 -0.8859623204201673 0.07780677025353455
0.028517214581370354 -0.2408154159784317 -0.035614486783742905 -0.7273240978824234 -0.029003018242257043 -0.6856810348641403
-0.03640300780534744 0.12010529637336731 -0.1314840167760849 -0.974032168634724 -0.015177280929881274 0.22590038647225086
-0.09072408080101013 -0.005999502260237932 0.08554752171039581 -0.3365730595107362 0.01614153542137606 0.9415189995139891
-0.013252836652100086 0.09978906065225601 -0.014484725892543793 0.8196363329994952 0.19649636895346287 -0.5381314510556366
-0.031912922859191895 0.16828615963459015 -0.16600200533866882 0.15447846803411702 0.6088561092460948 -0.7780942366754428
-0.12048369646072388 0.1954876184463501 0.12389878928661346 0.5979097913785204 -0.3691458662649424 0.7115020806668099
-0.14267757534980774 0.21343021094799042 0.121486596763134 -0.19768098209759985 0.6023149630272462 0.7733944107830205
-0.038549020886421204 0.2436748594045639 0.018489684909582138 0.896837186206253 0.3620670948158307 0.25414657245234457
-0.12579935789108276 0.1998431235551834 0.06726391613483429 -0.8808994146223439 -0.24471477948343673 0.40513071720172567
-0.1343647688627243 -0.2649940550327301 -0.015231037512421608 -0.5867704611775397 0.37203561582497335 -0.7192287024634308
-0.09551989287137985 0.03967897966504097 0.05717414245009422 -0.8337280413240905 -0.4727572230001804 0.28530362985958213
-0.10750743746757507 0.20132103562355042 0.11840859055519104 0.4720289368855058 -0.3639017292531669 0.8029721129586592
-0.09630629420280457 -0.2683449983596802 0.021522346884012222 0.9022624474485668 -0.3394745410179805 0.26585618654594756
-0.030720727518200874 0.013453652150928974 -0.06912777572870255 0.14717377667845252 0.1764834901740814 -0.9732386434755743
-0.04607316479086876 0.24956835806369781 0.03809170424938202 0.8202073711955137 0.3897110365394813 0.41879013388076397
-0.11289145797491074 -0.2539757192134857 0.040276963263750076 -0.05236709463378454 -0.18246259362729686 0.9818172382507939
-0.01082202885299921 0.030963733792304993 -0.05945363640785217 0.44921560389855436 -0.21149301138120655 -0.8680299806751873
-0.029106277972459793 0.15007084608078003 -0.17554834485054016 0.2961818708476593 0.08698757713414232 -0.9511621632537284
-0.02618451789021492 0.21624208986759186 0.02940959297120571 0.8103259316415966 0.510013329230696 0.288545123882211
-0.1295531541109085 -0.07017738372087479 0.011050660163164139 -0.8344455378999485 -0.19926356351766006 -0.5138041227287975
-0.09403005987405777 0.1179986298084259 -0.03128322958946228 -0.6125004600910812 -0.15302515629124785 -0.7755169165983764
-0.021127255633473396 0.21894602477550507 -0.09517588466405869 0.935760664859954 0.20782501639672932 -0.2848872420108631
0.00934365764260292 0.04760504141449928 -0.05091537907719612 0.6730955051306995 0.36170978473299503 0.6450647041973845
-0.14098718762397766 -0.4196947515010834 0.032281454652547836 -0.8704236189302922 -0.21393258875687313 0.4433909911985992
-0.033164460211992264 0.11623075604438782 -0.15194277465343475 -0.8045294396209379 -0.49102491872788295 -0.3341061357884582
-0.13003353774547577 -0.29420170187950134 0.029502416029572487 -0.2238621122468598 -0.18014067993323107 0.9578283197596361
0.054865870624780655 -0.07431425899267197 -0.061599381268024445 0.6191869875603976 0.6475615938899693 -0.4441525149704354
-0.09727334976196289 0.33322614431381226 0.006203681230545044 -0.8896026820590973 -0.4548124823361482 -0.04186494935493615
-0.1301926225423813 -0.3089793026447296 0.024912593886256218 -0.22997140455589699 -0.36444152654691186 0.9023832483012663
-0.10545674711465836 -0.13809344172477722 0.03961918503046036 -0.8923977544238612 -0.15094755028406664 -0.42525414161709135
0.03332151845097542 -0.3491272032260895 0.009448344819247723 -0.16300521421736014 0.2471560003138357 0.9551665884267623
0.00674931425601244 -0.16324856877326965 -0.10470915585756302 -0.22517402557662627 -0.6287197933622268 -0.744317190208701
-0.1136622354388237 0.046328406780958176 0.07194452732801437 0.6101554997999998 0.7516832754946006 0.2503647726928065
-0.06226510927081108 0.11924172192811966 0.07765446603298187 0.2809999502561025 -0.09641914913369763 0.9548520176636806
-0.06457040458917618 0.2105475664138794 -0.09105263650417328 -0.8900978762688317 0.2170148867631917 -0.40078711254838867
-0.07401438802480698 -0.14395487308502197 -0.008019876666367054 -0.13144456129415436 -0.3384787912950861 -0.9317480534723992
-0.028706485405564308 0.16632188856601715 -0.041556794196367264 0.4530307077083491 -0.21847974985783974 -0.864308843397618
0.07503477483987808 -0.09387686848640442 -0.04854273796081543 0.8069627684747603 0.5900390579642206 -0.025787601133985653
-0.01942618563771248 0.2174968421459198 -0.06891784816980362 0.9898043880723376 -0.14202998211987541 -0.010712494190111289
0.0756588876247406 -0.15232901275157928 -0.055226344615221024 0.5150450019610522 -0.5959408646683748 -0.6161031827326081
-0.0380476713180542 0.1522917002439499 -0.0417533777654171 0.44049298122727487 -0.1797693341522871 -0.8795731464681895
0.04542798176407814 -0.12057244032621384 -0.10118499398231506 0.5969303624234852 0.4160776022939961 -0.6859690745844494
-0.01989344321191311 0.002005625981837511 0.043093372136354446 0.7975567877791042 -0.11698461571449734 0.5917919988928614
0.08363375812768936 -0.1298038512468338 -0.06605562567710876 0.8583023321312825 -0.23629407859553156 -0.455502157051633
-0.08479172736406326 0.13408666849136353 -0.0385323129594326 -0.49350356439475507 -0.2120837676806225 -0.8434896012495136
-0.08995284140110016 0.26412516832351685 -0.0253316480666399 -0.627154570447325 0.6659881980743589 -0.40390204851263134
-0.1261620968580246 0.1922469437122345 0.09287377446889877 -0.3242793775950408 -0.6858331646164949 -0.6515180393348267
-0.11612578481435776 -0.018281174823641777 0.07307465374469757 -0.6567825941954429 0.0777668015447306 0.7500592966822068
-0.10342444479465485 0.2333953082561493 -0.03709123656153679 -0.8173995002587507 0.3763226222217728 -0.4361643508826385
-0.05469334498047829 0.23525658249855042 -0.09011650830507278 -0.38647868913169703 0.6317616113107248 -0.6719460464361121
0.01199211087077856 -0.10900390148162842 -0.1037767231464386 -0.07805937597949535 0.4831322259264505 -0.8720607697248197
-0.03927907347679138 -0.004794954787939787 0.06736401468515396 0.7354471604359972 -0.10697153532464948 0.6690848711762328
-0.10349713265895844 0.03592001274228096 0.05607196316123009 -0.5122588549827224 0.4502715414900178 0.7313319385996986
0.00716085359454155 -0.18766272068023682 0.06439552456140518 0.39124440994570614 -0.6400580814756939 0.6612514378236849
-0.0986952856183052 -0.28261756896972656 0.006187393330037594 0.9553456165677715 -0.27729154745295437 0.1020987297467045
-0.14504066109657288 -0.3176487982273102 -0.017209293320775032 -0.7565753546288781 0.1265348805252608 -0.6415470807186682
-0.00990127120167017 0.3537525236606598 -0.007019863463938236 0.8307271438505206 -0.009688432403138651 -0.5565954965210609
0.05714365467429161 -0.17590507864952087 -0.03348192200064659 0.5411363951395767 -0.5237789677775977 -0.6578958844446273
-0.03594275936484337 0.13144446909427643 0.06500369310379028 0.662218253626754 -0.10214305622152517 0.742316496266423
-0.12720221281051636 -0.38471898436546326 -0.02872021310031414 0.5939406294323458 0.17085164498962807 -0.7861579002425957
-0.09633374959230423 -0.1784360408782959 0.021174471825361252 -0.9147876574834779 -0.3766170111000649 -0.14602454816209784
-0.0032416225876659155 0.08814176917076111 -0.1104116439819336 0.7966764386333673 -0.4240276836994716 -0.4307054394628832
-0.10634976625442505 -0.4173647165298462 0.010656464844942093 0.9207572993264658 -0.07731312183422236 -0.38239858384842373
-0.12010897696018219 0.11241130530834198 0.02724853716790676 -0.9861270299824888 -0.16146578024142544 -0.03850042271123123
-0.09893094003200531 -0.15382814407348633 0.0309172123670578 -0.9816748950754417 -0.15023030270930696 -0.1172401660118692
-0.12279398739337921 -0.030823202803730965 -0.009696879424154758 -0.8131742880585475 -0.15195687502696922 -0.5618333252598251
-0.004657899495214224 0.06919889152050018 -0.004751263186335564 0.958830007683791 0.26999259398399367 -0.08802849288097433
-0.037745703011751175 0.13243666291236877 -0.14186282455921173 -0.9581625232562833 -0.019647495429977128 0.2855495665387736
-0.13268400728702545 -0.0032728996593505144 0.031840547919273376 -0.9590383450069844 0.27224350564006605 0.07828746031818727
-0.12489057332277298 -0.0725402683019638 0.0045479098334908485 -0.7854807082043087 -0.2342832044383486 -0.5728275806531637
-0.1331586092710495 -0.06748857349157333 0.04303130507469177 -0.9107830372246505 -0.1939944826905948 0.36447276961310754
-0.00703189754858613 -0.06991828978061676 -0.08104898780584335 -0.0877184765632091 0.4068120318732075 -0.9092906243839877
-0.11125440150499344 -0.009472097270190716 -0.025275498628616333 -0.7895868719329395 0.18456862048838876 -0.585223885365395
-0.055756933987140656 0.1647668331861496 -0.13845506310462952 -0.964088616865543 -0.1961396508115103 0.17905970012770292
0.09446301311254501 -0.13253000378608704 -0.03166136518120766 0.9745444727142907 0.2203463667424133 0.04135878824921169
-0.13523609936237335 -0.2425488382577896 0.022408997640013695 -0.8947651896156587 0.28872796489687297 0.34063384702428606
-0.011641029268503189 0.0667710155248642 -0.060418449342250824 0.02897211703241006 0.6363695014563712 0.7708401092644506
-0.00821246299892664 0.09487023204565048 0.0181406419724226 0.9865867459790043 0.1367620676854219 0.08912199224079191
-0.01602042280137539 0.3884403109550476 -0.00827410165220499 0.6549952347932254 0.44712868825418645 -0.6091446285885299
-0.11779262125492096 0.22171396017074585 -0.009428714402019978 -0.9311117775236183 0.2411616377993871 -0.2736273418551685
0.05730566754937172 -0.16363386809825897 -0.08588699996471405 0.8008345490697895 -0.4562662854205988 -0.38792409283863233
-0.02386675402522087 0.23206526041030884 -0.03217974677681923 0.8851789964470065 0.41668010135397693 0.20696820380123582
-0.05154119059443474 0.19282940030097961 -0.13571389019489288 -0.48712907689666324 0.7068897867190463 -0.5128470453011363
-0.03922901302576065 0.4031031131744385 -0.004592020995914936 0.18917044998582888 0.8603109642579014 -0.4733704528482939
-0.14959566295146942 -0.30409786105155945 -0.001313915941864252 -0.9970757236083468 -0.05339595580717629 -0.054670588933444876
-0.05666574090719223 0.1886972337961197 0.08977632224559784 0.21764428445025166 0.18147633764553428 0.9590085006510118
-0.09650193899869919 0.34621769189834595 -0.016486043110489845 -0.6391074045749279 -0.3594034465862 -0.6799785937803189
-0.06986794620752335 0.3143116533756256 -0.014813330955803394 -0.31998860331091844 -0.21233775569979688 -0.9233200806088326
-0.0604482926428318 -0.17477543652057648 0.08032781630754471 -0.2354418841069646 -0.10874622059675115 0.9657853688651974
-0.10803733766078949 0.11691161245107651 -0.010119623504579067 -0.8765261829437092 -0.1391200305581434 -0.4608117486692723
-0.1321842074394226 -0.08299920707941055 0.034557003527879715 -0.9629010096606038 -0.2639159587622493 0.056302862317936304
-0.058865003287792206 0.031121525913476944 -0.061341792345047 -0.32608588395601484 0.3056308761229149 -0.894571273764681
-0.08396892994642258 0.30260583758354187 -0.0036824357230216265 -0.8571535579668907 -0.07099146741368197 -0.5101450672300502
-0.15426892042160034 -0.381189227104187 -0.01609361171722412 -0.9762441933530539 0.16028777271969394 0.14579130584847977
-0.012278227135539055 0.17730222642421722 0.04553079605102539 0.9402292650320235 0.07188577950972218 0.3328683882281712
0.01713191531598568 -0.15842728316783905 -0.10921332985162735 0.007924875548932545 -0.540625627111059 -0.8412259670613529
-0.1282598078250885 -0.40090087056159973 0.022544894367456436 0.10391090217278677 -0.8873456614364511 -0.4492440333933717
0.06667868047952652 -0.2348623424768448 -0.039377953857183456 0.5497536567224405 0.07621081089871584 -0.8318430316005933
-0.06578391045331955 -0.004797166213393211 0.08500471711158752 0.1840553171859565 -0.0491632930709904 0.9816855967314551
-0.14754997193813324 -0.2979861795902252 0.010741664096713066 -0.9025480774245126 -0.042424311761208866 0.42849404395966095
-0.018184300512075424 0.2944028079509735 0.0035472759045660496 0.5321684712243342 -0.6805045477795184 -0.5036966137330571
-0.015974413603544235 0.14186245203018188 0.033173467963933945 0.9585881708476834 -0.09286576105089282 0.2692297701505742
-0.1444096714258194 0.21338041126728058 0.12078537791967392 -0.3536300163281279 0.7284977598071081 0.5867169892783004
0.028376052156090736 -0.3134203553199768 -0.021721653640270233 -0.6960535097295721 -0.20788581543479273 -0.6872357669200256
-0.0023321807384490967 -0.006248912774026394 0.01914854720234871 0.8706079522898817 0.08897474852745856 0.48386494761874893
-0.08832216262817383 0.3397275507450104 0.034830350428819656 -0.6456640254252065 -0.24141578302456357 0.7244559241101939
-0.09598143398761749 -0.0032803956419229507 -0.044442445039749146 -0.7340210252126798 0.16873233322857703 -0.6578316914446788
-0.11458327621221542 -0.044971808791160583 -0.017832903191447258 -0.7821228808579019 -0.25753740809473397 -0.5674136786070482
0.039403002709150314 -0.07703626900911331 -0.0006478068535216153 0.6523677196702372 0.3898075384443608 0.6499741851059957
-0.11810871958732605 -0.11835373938083649 0.059989750385284424 -0.9954309877571715 0.09250147721115283 -0.02367752788059934
0.024242235347628593 -0.2847895920276642 -0.0066072684712708 -0.9623836003859396 -0.02726417924803308 0.2703228999513862
-0.06870245933532715 0.08899833261966705 0.07865944504737854 -0.03480286124632866 0.12116236154960335 0.9920224004490987
-0.10825785249471664 -0.004919631406664848 0.0766281858086586 -0.5124256342121863 0.060086050456344166 0.8566268942443941
-0.10556287318468094 -0.30418670177459717 0.004572383593767881 0.9400151686068595 -0.32216653440486853 0.11216152147048547
-0.021449273452162743 0.08088076114654541 -0.0780472382903099 -0.7803016957550347 0.19319547924221048 0.5948149043208232
-0.017633581534028053 0.09644165635108948 -0.13118043541908264 0.4592475999035891 -0.6745770336322003 -0.5779597457252316
-0.051968179643154144 0.40902194380760193 0.012899061664938927 0.08828586129443435 0.9959777701324433 0.015293400455946274
-0.11905231326818466 -0.11734672635793686 0.015752606093883514 -0.8567709584467367 -0.5063134426723399 -0.09792968156561865
-0.1741124540567398 0.1725383847951889 0.14876991510391235 0.04751968627060632 0.33790155140714034 0.9399810747953338
-0.09564799070358276 0.18514546751976013 0.08130228519439697 -0.28780447613910665 -0.36767664203198636 0.8842977272493562
0.0622321218252182 -0.31832438707351685 -0.007994250394403934 0.9600575134135617 -0.0856862944472702 0.2663595875542395
-0.145534485578537 -0.27559274435043335 -0.006341321859508753 -0.8967759611970533 0.26392934128851836 -0.3551537388598214
-0.020079035311937332 0.231155663728714 -0.07780618965625763 0.9298873669415737 0.2950404253143082 -0.21968302672901058
-0.12168436497449875 -0.04557741433382034 0.06724148988723755 -0.7719573205436354 -0.044613127053281784 0.6341069027802951
-0.13343191146850586 0.20465700328350067 0.03192324936389923 -0.9881721106093514 -0.024671183477820262 -0.1513512884638369
0.09789903461933136 -0.15204522013664246 -0.03219270706176758 0.9703737181973829 -0.2260337353540564 -0.08534399518231153
-0.011073478497564793 0.3129969537258148 0.03163643926382065 0.6322545930286686 -0.38770466223622174 0.6707750923181702
0.02248201332986355 -0.3513834476470947 -0.014385158196091652 -0.7693043911589081 0.06358758508713717 -0.6357101326598529
-0.11210218071937561 0.0961405485868454 0.004861974623054266 -0.8944469493241485 -0.16489235448102302 -0.41566232241860573
0.023155227303504944 -0.33679378032684326 0.003654615953564644 -0.8388916097331747 0.2566780741230191 0.47997628418889715
-0.04486939311027527 0.1436145305633545 -0.1515626311302185 -0.876474709173211 -0.48007094418079654 0.03638643611421604
-0.06367176026105881 0.2435593456029892 -0.07858636975288391 -0.5281841661264822 0.5528500609624677 -0.6444984846739893
-0.12735453248023987 -0.05815901979804039 0.0034724404104053974 -0.8196563614897021 -0.12880459943269204 -0.558187087126213
-0.005019981414079666 0.05913067236542702 -0.021440908312797546 0.9021281482111698 0.3084401773557539 -0.3017108900882379
-0.11460286378860474 0.0793311670422554 0.03452017158269882 -0.9997598723549582 0.0030499866338977444 0.021700120053370204
-0.10234534740447998 0.06537806242704391 -0.009162667207419872 -0.8873628225711614 -0.020040014418925747 -0.4606361025154571
0.013262543827295303 -0.1352284550666809 0.05718035250902176 0.35099074488344784 0.3702890885229327 0.8600531890104345
-0.041227515786886215 0.1349519044160843 -0.15444572269916534 -0.8210782018984389 -0.5616656991340401 -0.10179503319659736
-0.060969285666942596 -0.08429626375436783 0.08402326703071594 0.30010491236981984 0.017045529527486416 0.9537538946157077
-0.043262869119644165 0.2820207178592682 -0.00919079128652811 0.7045997620784191 0.153150852920359 -0.6928809360408192
-0.030868180096149445 0.14950768649578094 -0.17566420137882233 -0.3076197446809061 0.07716299474019474 -0.9483754345854698
0.0009099301532842219 0.02609407529234886 -0.041369907557964325 0.8757973996591389 0.2255205023119761 -0.426754517008601
-0.0826893076300621 0.03595218062400818 -0.045845337212085724 -0.6185857305093555 0.3589512282864293 -0.6989318348178675
-0.1268223077058792 0.17827707529067993 0.021228939294815063 -0.9714161647758471 -0.17240873333675194 -0.16317433462833858
-0.12215627729892731 -0.06830866634845734 -0.0002891890471801162 -0.7700973251937115 -0.19233733674889347 -0.6082404611844182
0.003487098729237914 0.019543049857020378 -0.011280910111963749 0.9954042315648088 0.05085650954830953 0.08114204347584142
0.01739373430609703 -0.1839672476053238 0.052849821746349335 0.32004744926270423 -0.9436285171672004 0.08446805200350861
-0.03924420848488808 0.2745613753795624 0.0006787893362343311 0.9339977755648518 0.01433121940351329 -0.35699127635044153
0.08864074945449829 -0.12047513574361801 -0.060046322643756866 0.9056684342792795 0.018689067363870746 -0.42357455767690677
-0.012736868113279343 0.09874718636274338 -0.13137106597423553 0.5184405233170002 -0.6373305090436572 -0.5701133624332515
0.005805091466754675 -0.0999586284160614 0.04391865059733391 0.44965597634938886 0.38005838013563353 0.8083100460973848
0.03476328402757645 -0.1064341738820076 -0.09634929895401001 0.3011410444152214 0.5849737252684725 -0.753073576826352
-0.04274207726120949 0.24005989730358124 0.037361156195402145 0.8687229947739568 0.344746744065757 0.3556262656315296
-0.10913136601448059 0.12326285243034363 0.06273532658815384 -0.8056485136099898 -0.22944382484171733 0.5461556589105505
-0.1011674553155899 0.35366612672805786 0.022906925529241562 -0.8795132871128363 -0.08019439938561321 0.4690684769830034
-0.1206376925110817 -0.0763782411813736 0.06386890262365341 -0.856004093058485 -0.14580278086254395 0.49598240065537563
-0.03615787625312805 0.18284256756305695 0.08298498392105103 0.5586586539817543 0.1388055069993866 0.8177001525974775
-0.04973646253347397 -0.18352638185024261 0.01916961930692196 0.20293041377282592 -0.7833913506316397 -0.5874667981439674
-0.1381547600030899 -0.2892712354660034 -0.019183732569217682 -0.6399323555541363 0.146896503107005 -0.7542599006243592
-0.11870203167200089 0.032164834439754486 0.07627640664577484 0.9930878097817868 -0.11308032478837529 0.03145540030852136
-0.07958784699440002 -0.09959473460912704 -0.044193658977746964 -0.8465730107423659 -0.3327626545576818 -0.4154312857914422
-0.10409627854824066 0.2536633610725403 0.0002650133683346212 -0.6917309198371219 0.6885216270605877 -0.21782172437828698
-0.07654068619012833 0.21138086915016174 0.09478121995925903 0.4114583567228406 -0.5286372423647826 0.7424585420532904
-0.032749101519584656 0.3692915141582489 -0.022589465603232384 0.38614231459285164 0.12497559957676385 -0.913933921239005
-0.008272948674857616 0.056518636643886566 -0.032438620924949646 0.8535565298341924 0.3833941034253417 -0.3527750158898582
-0.07509104162454605 0.13831038773059845 -0.04551234096288681 -0.32553790541659444 -0.2508828218467675 -0.911637472814265
-0.09452357143163681 -0.26720309257507324 0.012765904888510704 0.9385319902576511 -0.32706882592752473 0.11037973713233273
-0.03653121739625931 -0.18015900254249573 0.014616518281400204 0.02578675633316551 -0.9608644214921609 -0.2758162553374061
-0.06266817450523376 -0.11254611611366272 0.08406276255846024 0.20146009678566185 0.009374667504911616 0.9794518594664487
-0.06615834683179855 -0.014925560913980007 0.08467049151659012 0.3142158591961738 -0.022229015833083576 0.9490912836417279
-0.12031745910644531 -0.13656669855117798 0.06456295400857925 -0.9821309647932763 0.18220288859819897 -0.047126164502328344
-0.02885499969124794 0.07944978028535843 0.06043174862861633 0.7193547231382107 0.052604014222302604 0.692648251269321
-0.10723128914833069 0.354255348443985 0.0019380138255655766 -0.9885202008976174 -0.15108732964013347 -0.0006566883186062984
0.009387342259287834 -0.005807590205222368 -0.042398735880851746 0.9030398370451047 0.3346812392769398 -0.2692722057428184
-0.154314786195755 -0.4146497845649719 -0.014540149830281734 -0.7023502530627076 -0.6798493807568294 0.21097142343764552
-0.11214626580476761 0.009013972245156765 0.07362569123506546 -0.7466088008872823 0.167580485055975 0.6438105928501477
0.06713681668043137 -0.0969959944486618 -0.07348287105560303 0.5421307173603618 0.5772871991606994 -0.6106011586785064
0.02506752498447895 -0.2630157768726349 -0.028400342911481857 -0.9021544187507834 -0.12555886434156716 -0.41273766040148585
-0.007401590701192617 0.12952075898647308 -0.1312553435564041 0.9661535385929677 0.23992282957071062 -0.0947859468226732
-0.08829453587532043 -0.041711289435625076 0.08645714074373245 -0.11200374264312708 -0.025963404331877396 0.9933685435272408
-0.09179524332284927 0.036135703325271606 0.0659635066986084 -0.8997824855678292 0.32923282726683406 0.2863515743195177
0.038452520966529846 -0.259777694940567 0.00979618914425373 -0.33673482814356415 0.06101606621252423 0.9396205059379416
-0.08869343250989914 0.2773491144180298 -0.002089716726914048 -0.88547568395203 0.29100226882883456 -0.3622850985979904
-0.11790858954191208 -0.007838116958737373 0.06790415197610855 -0.7530129721814459 0.1094307532294682 0.6488423336790659
-0.17989930510520935 0.17122043669223785 0.1183634102344513 -0.5683646516687605 0.10090866054053034 -0.8165654076443384
-0.10193667560815811 0.3662169277667999 0.019088251516222954 -0.8946787816514221 0.005384007419814378 0.4466776131919197
-0.12057384848594666 -0.22438356280326843 1.595077628735453e-05 -0.5222236330436658 0.5209586265903393 -0.6751922588950366
0.03745963051915169 -0.1431577354669571 -0.11343979835510254 0.3902439449275605 -0.24207086281375625 -0.8883194024808749
0.014722074382007122 -0.16266486048698425 0.06549736857414246 0.20232547909744011 0.10520733972445494 0.9736507670495076
-0.12223824113607407 0.192680224776268 0.06855383515357971 -0.6334682708533598 -0.7325453456824631 0.24918921794695534
-0.0089506721124053 -0.16882064938545227 -0.0795535147190094 -0.33218061034934243 -0.9276469954386816 -0.17066661642373193
-0.04997355490922928 -0.0030057106632739305 0.07758985459804535 0.5769718334605513 -0.13735436083513228 0.8051318419692157
-0.12863440811634064 0.1843290477991104 0.024806087836623192 -0.9636626235641753 -0.2056947635844185 -0.17042303887491542
-0.0020639291033148766 0.05727008357644081 -0.007801045663654804 0.9585857012825774 0.2500605226103133 -0.13632016845810652
0.08786051720380783 -0.16532069444656372 -0.036212265491485596 0.5553727060483742 -0.7513460557140359 -0.35642707801101087
-0.11506696045398712 -0.1500934213399887 0.054780978709459305 -0.9105302099627742 0.01887555874803776 -0.41301144055231176
-0.07050712406635284 0.3858976364135742 -0.026301870122551918 -0.08425328222793 0.5362024295850825 -0.8398740018246043
-0.010916433297097683 -0.07611788809299469 -0.0841464027762413 -0.16103234615578213 0.3594969202771104 -0.9191466410768401
-0.16870476305484772 0.17523324489593506 0.14691869914531708 0.23560296566441133 0.2210459801095794 0.9463772594729493
0.005450936034321785 -0.019275199621915817 0.006931902840733528 0.8959155082930886 0.2208688845763286 0.385424879614621
-0.11835945397615433 -0.026668088510632515 -0.01904602348804474 -0.8174982494885228 -0.11697637761980396 -0.5639265370260119
0.005842830520123243 0.0319305881857872 -0.039620935916900635 0.9479362224422759 0.18519214474092321 -0.2590767988611193
-0.02898901142179966 -0.18832771480083466 0.03341463953256607 0.19473232377437963 -0.8913298763727908 -0.4094024591556527
0.015582116320729256 -0.056590352207422256 -0.07075245678424835 0.30539657709661894 0.4838726488846143 -0.8201220582078351
-0.1553075760602951 -0.39992740750312805 -0.009486285038292408 -0.9255707586392954 0.10470731158628727 0.3638064728014766
0.04171360284090042 -0.06539914011955261 -0.06454144418239594 0.5159033834445478 0.5864539091918909 -0.6244321511133274
-0.035801999270915985 0.2863316237926483 0.004112205468118191 0.7796840058800885 -0.3426075098341124 -0.5241306565924636
0.0156470388174057 -0.34658315777778625 -0.004148031119257212 -0.8618707927221709 0.40529368009426253 0.3048208810565742
-0.125991091132164 0.1784932166337967 0.015871310606598854 -0.9689214925586579 -0.15721310746577252 -0.19098476404901588
0.042432624846696854 -0.2946249842643738 0.007629586849361658 -0.18747977732183566 -0.061333790553136945 0.9803517222057291
-0.10575053095817566 0.08921569585800171 -0.0026099318638443947 -0.8964391911713256 -0.16266530311420252 -0.41223388470001354
-0.11455883830785751 0.23288953304290771 0.11651880294084549 -0.214886221290541 0.5372418104107746 0.815594966295174
-0.03881867974996567 -0.09055333584547043 -0.07328389585018158 -0.4198102812931325 0.020597588318876713 -0.907378127946683
-0.05315535143017769 0.39608773589134216 -0.017669370397925377 0.08520798950103806 0.6926682848019995 -0.7162054494030656
-0.0016924551455304027 -0.1826348602771759 0.06881348788738251 0.5135510548441401 -0.597296117283207 0.6160378741172301
-0.10805844515562057 -0.28901800513267517 0.027578234672546387 0.7011836464914731 -0.4265468641508813 0.5713136324086541
-0.11705601960420609 0.25220686197280884 0.07401705533266068 -0.7577076906398896 0.6380210310062705 0.13714306230670611
-0.0550517812371254 -0.2024002969264984 0.04398084431886673 0.5545742256549058 -0.7838022690931449 0.27946633286265254
-0.08064189553260803 0.24978375434875488 -0.056447241455316544 -0.6113768912002625 0.5069386667000604 -0.6076442093122155
-0.051965221762657166 0.2408498376607895 0.05364258959889412 0.7956903383568622 0.4251668926240148 0.43140468108492014
-0.1734607219696045 0.19299857318401337 0.1166897863149643 -0.7909344912507804 0.3827364416211902 -0.47742585477225524
-0.005481638479977846 0.15682314336299896 -0.005937781184911728 0.8708397400091674 -0.4751855405415485 -0.12584454410502735
-0.10022259503602982 0.057690154761075974 -0.011978576891124249 -0.8807348652373029 -0.03414922569556237 -0.472376891411745
0.023800740018486977 -0.2440514713525772 -0.004621050786226988 -0.9315920719087168 0.04136251989487124 0.36114450501810275
-0.11256105452775955 0.03621261939406395 0.08371054381132126 0.846235980080665 -0.17151767954349015 -0.5044465795512276
-0.1272185891866684 -0.06625702977180481 0.005639904178678989 -0.814367216667478 -0.1827956104733952 -0.5508101317231954
0.08671757578849792 -0.423906147480011 -0.021478964015841484 -0.21364415986982843 -0.9746125427470899 -0.06698182196362945
-0.022770369425415993 0.1005672737956047 -0.13676154613494873 0.2771262792055235 -0.7302046167644185 -0.6245015956982265
0.020031115040183067 -0.3395078182220459 -0.01151017751544714 -0.8295672910213238 0.3127598662244496 -0.4626006655278466
-0.026295896619558334 0.0951598510146141 -0.09895900636911392 -0.9161254815414325 0.02685645740527226 0.39999104085731374
-0.022139891982078552 0.20817598700523376 -0.07636551558971405 0.8850705639168153 -0.43252712272600347 0.1719604169404557
-0.09418420493602753 0.040190439671278 -0.030755164101719856 -0.8073474576093911 0.23915298527093598 -0.5394403881131371
0.07760660350322723 -0.25142329931259155 -0.023412514477968216 0.9634384957760221 -0.22077832721313345 -0.15179985207438917
-0.0016183843836188316 0.050854966044425964 -0.0194034893065691 0.9441210554026507 0.2327976678844956 -0.23332526346910099
-0.04235474765300751 0.38053855299949646 0.04837765544652939 0.1402524929563771 0.28917307466040587 0.9469467625537186
0.08700773119926453 -0.12955565750598907 -0.003418553154915571 0.7568703707508264 0.48685382582859327 0.4360282033946522
0.0608140230178833 -0.08802303671836853 -0.07029715180397034 0.5819899959041361 0.6249114434699238 -0.520358849725687
-0.09160373359918594 -0.23218680918216705 -0.0011645322665572166 0.5316574067134157 0.0015979756639373415 -0.8469579968100798
0.003612493397668004 0.06502146273851395 -0.06289983540773392 0.4787185833474399 0.5245738672387403 0.7040246982656311
-0.10350824892520905 0.34111878275871277 0.005622492171823978 -0.9100702091429937 -0.40684741093367405 0.07904048739091848
-0.035336896777153015 0.2572516202926636 -0.047751884907484055 0.6372980433922194 0.7558765665964786 0.15000606640655553
-0.02985784225165844 -0.07179789245128632 -0.07686424255371094 -0.35197115463522743 0.10250487090235305 -0.9303811357427862
-0.12721948325634003 0.1709703952074051 0.050029002130031586 -0.9668763659073398 -0.23292828866178744 0.10437674736696442
0.05923616141080856 -0.2603088319301605 -0.04154769703745842 0.27854901552575784 -0.2164192070903616 -0.9357206702600998
-0.05240663141012192 0.201137512922287 -0.12337659299373627 -0.703647849997515 0.5994602216555411 -0.3814802037413792
-0.11498801410198212 -0.03156658262014389 -0.022460823878645897 -0.8197157972243232 -0.13226246068643221 -0.5572904568302444
-0.04222728684544563 0.37256690859794617 -0.02616557665169239 0.30701257449919883 0.13604703567796933 -0.9419312518345546
-0.06295184791088104 -0.08420611172914505 0.08434025943279266 0.24215875143525792 0.020182223121671294 0.9700267094122637
-0.05252467468380928 0.14711496233940125 0.07994066178798676 0.32049645130234006 -0.3502467877568039 0.8801188626365459
-0.07781284302473068 -0.12100046873092651 -0.01089255977421999 -0.4081758128970166 -0.31266384535797037 -0.8576909848959745
-0.048156507313251495 0.049140337854623795 0.077356718480587 0.3992554542496301 0.02022590459919574 0.9166166019852934
-0.13855302333831787 -0.25372520089149475 0.02316041849553585 -0.8675968924106221 0.27075853637829433 0.41709165330621945
-0.05424455553293228 0.007003751117736101 0.08140116930007935 0.4630836107180096 -0.0903893116529992 0.8816934511627428
0.0781099870800972 -0.12966832518577576 0.006500829476863146 0.6660405798398688 0.4931135396988615 0.5596686367594942
-0.060560617595911026 -0.0741906464099884 0.08405917137861252 0.35328453682351446 0.01051420668908337 0.9354568335840484
-0.017037080600857735 0.13309356570243835 0.03630112484097481 0.9370526036367809 -0.028710691910248328 0.3480059111388266
-0.061463139951229095 0.4069339334964752 0.013394388370215893 -0.26026096763576845 0.9542315869275888 0.14733060522155286
0.07960006594657898 -0.13655118644237518 0.010019604116678238 0.6186590972681779 0.46003796515237894 0.636887738919334
-0.009968994185328484 0.37772512435913086 0.03608735650777817 0.5962901097071664 0.26437675603034555 0.757986171335788
-0.015638437122106552 0.07529096305370331 0.04522379860281944 0.8318148040740921 0.08423549962003973 0.5486241995455013
-0.08435703814029694 0.1505829393863678 -0.04403061047196388 -0.4122126160457974 -0.2081804464546259 -0.8869845888664767
-0.06737274676561356 0.405232697725296 0.002482192823663354 -0.23823533793840265 0.9580375834875458 -0.1593985959245538
-0.04831280559301376 -0.15575265884399414 -0.00561792915686965 -0.8691801095037207 -0.4847639500402176 -0.09762095054088274
-0.06637424230575562 -0.2179628163576126 0.039405860006809235 0.6970278724384158 -0.6915296947945949 0.1895753841121521
-0.16078579425811768 0.14827562868595123 0.1198863536119461 0.5121494109756187 0.08198942153874018 -0.8549741022937885
0.06946966052055359 -0.16341587901115417 0.01720900647342205 0.5167445217658949 -0.5652729689381686 0.64299422222347
0.019423743709921837 -0.1132052019238472 0.04275834932923317 0.5873709968178024 0.4551845796876973 0.669180327349658
-0.11171646416187286 -0.04268920049071312 -0.022792326286435127 -0.7948795870467585 -0.25132739023486406 -0.5522689426485136
-0.10421067476272583 -0.42169687151908875 0.0169257503002882 0.8854547023663699 -0.31268293331183505 -0.34380132820102627
-0.1391337513923645 -0.026459719985723495 0.0246373750269413 -0.9983159166840069 0.05776720039918589 -0.00531799336324214
-0.011793766170740128 0.11930203437805176 -0.0015319924568757415 0.9773011297080428 0.052764508584889735 -0.20517896701460037
-0.12388715893030167 0.0538756400346756 0.07762779295444489 0.7951537209901028 0.37498885061658943 0.47656470904678105
0.024555664509534836 -0.2386605441570282 -0.030324582010507584 -0.902511367964798 0.0637572191443367 -0.42592047109911285
-0.13823921978473663 -0.31317079067230225 -0.021601198241114616 -0.3694724104329923 -0.0392541724860611 -0.9284122187214412
-0.057130761444568634 0.08974111080169678 -0.04384160041809082 -0.04031358689007052 0.17242331664425492 -0.9841976501645652
-0.0366065539419651 0.12326095998287201 -0.13494963943958282 -0.990164836482404 -0.032508426273919526 0.13607644474694033
-0.1136179193854332 -0.06560426950454712 -0.010032746940851212 -0.6761291895023062 -0.2581452653007453 -0.6900799526908188
-0.1693935990333557 0.12144437432289124 0.1365426927804947 -0.06171472481263363 -0.5253302805223148 0.8486574038489543
0.02801322378218174 -0.11844460666179657 0.040381889790296555 0.6706944511505818 0.44616496919345294 0.5925417904759335
-0.12564529478549957 0.163302481174469 0.03534723073244095 -0.9836026098998035 -0.17821272024336451 0.02767909214109654
-0.1670454889535904 0.19930753111839294 0.13046084344387054 -0.4814016614117611 0.8599057605586582 0.16974841191608228
-0.13926199078559875 0.06949850916862488 0.09497568011283875 0.2262828818891784 -0.10956819519912628 0.9678795730692608
0.014376649633049965 -0.019077572971582413 -0.023785697296261787 0.8964921033397035 0.41082085809315355 0.1659160366123767
-0.11444978415966034 0.19359061121940613 -0.023107973858714104 -0.9360029628992178 -0.1433807610900326 -0.3214660336538351
0.044515252113342285 -0.17211610078811646 -0.08880298584699631 0.4845401489696936 -0.8009443834610932 -0.35172281506685993
-0.010358590632677078 0.36704781651496887 -0.007755106780678034 0.735197768523941 0.04022168611217225 -0.6766583015996417
-0.011485333554446697 0.14593976736068726 -0.006929658818989992 0.9073132859406114 -0.38975009907887864 -0.1577259060004239
0.027935361489653587 -0.1322215348482132 -0.11497915536165237 0.14464302309398355 0.1808350735520236 -0.9728191363473827
-0.0413096584379673 0.13108907639980316 0.06943050771951675 0.4539905265462673 -0.1511926699143882 0.8780850632885187
-0.11429466307163239 0.06145331636071205 0.019569993019104004 -0.9784954755290711 -0.062103961748298006 -0.19669698092320323
-0.09064926207065582 0.06042810156941414 -0.029256371781229973 -0.7813050288938953 0.0774710599466714 -0.619322764554839
-0.1122099980711937 0.20709986984729767 0.1226632222533226 0.3053733369566968 0.03386519010546669 0.9516303242199948
-0.054618846625089645 0.3385776877403259 -0.02609451487660408 0.13902161953549036 -0.1924051033391512 -0.9714181723185851
-0.0145113505423069 0.17842406034469604 0.05150853842496872 0.9295743123595732 0.025117115524915995 0.3677780965595078
0.07353657484054565 -0.4024457335472107 -0.027017785236239433 0.15821788696389974 0.6072485250200257 -0.7785989526744062
-0.10309722274541855 -0.2853257954120636 0.021992739289999008 0.7974689332219996 -0.43101097099624325 0.4222236888506394
0.07797084003686905 -0.24890556931495667 -0.020374350249767303 0.9954250970463099 -0.07716716518940589 0.056339194056850436
-0.04520373046398163 0.17867019772529602 0.0885147675871849 0.3272097096068602 0.04550709176679118 0.9438553440744631
-0.07279122620820999 -0.12259504199028015 -0.020212121307849884 -0.8348732490360604 -0.5396601853666163 -0.10841375546507818
-0.07522321492433548 -0.14466135203838348 -0.007948232814669609 -0.12310958880908181 -0.30140965051546703 -0.9455137501482476
-0.04943610355257988 -0.18390141427516937 0.08152952790260315 -0.08755923272742537 -0.0936203464137093 0.9917502767842123
0.020520158112049103 -0.179854616522789 -0.07667537778615952 -0.10470091927626618 -0.9913541076447122 -0.0790869822326098
0.07635191082954407 -0.23521366715431213 -0.02941347472369671 0.9090395125064578 0.06572217788986318 -0.41149454435682986
-0.06889534741640091 0.3206110894680023 -0.016619982197880745 -0.2715661818325768 -0.32093092372370924 -0.907334090113847
0.0791340246796608 -0.13437344133853912 -0.0693804919719696 0.7681967267956332 -0.41301125244058046 -0.4891783869897958
-0.09233401715755463 0.03954204171895981 0.08491368591785431 0.8543070262920157 0.22724901194203959 0.4674584381519496
-0.011277338489890099 0.35381048917770386 0.03829185664653778 0.5362772353499355 -0.06309842881498129 0.8416800550841813
-0.17891763150691986 0.1517673134803772 0.15067584812641144 -0.05091997108085857 -0.19564866100635664 0.979351192367449
0.0584305040538311 -0.2101498395204544 0.003662664908915758 0.16410631024715755 0.006968842628997192 0.9864180422972179
