ply
format ascii 1.0
comment VCGLIB generated
element vertex 393
property float x
property float y
property float z
property float nx
property float ny
property float nz
element face 0
property list uchar int vertex_indices
end_header
-0.01112592313438654 0.32469063997268677 0.03505057469010353 0.7382396619270802 -0.11854025766971832 0.6640409692702605
-0.09593123197555542 0.06341028958559036 0.0727761909365654 -0.9519459807409041 -0.2586131708206221 0.16406729603837014
0.029773302376270294 -0.1781664937734604 -0.04085347801446915 0.2743501249447727 -0.7873232539000874 -0.5521359459507833
0.012880472466349602 -0.02690868265926838 -0.03612202778458595 0.8666567345523868 0.4976033675691531 -0.03601378956500007
-0.132195383310318 -0.247129887342453 0.03412361815571785 -0.24948196305570408 0.11173060927191963 0.9619121690994443
-0.049043864011764526 0.2285281866788864 0.05560772866010666 0.7723103738802866 0.4580717970368789 0.4401214777266575
0.029251648113131523 -0.1741560399532318 0.021290356293320656 0.06224153183531519 -0.9455876640600861 0.3193586718600001
0.02292197197675705 -0.23780527710914612 -0.0026915776543319225 -0.9562126733544108 0.0896775937658499 0.2785951408276495
-0.044670701026916504 0.1285652220249176 -0.14067049324512482 -0.9259068397720377 -0.3392504200826395 0.1661495607490754
-0.07851983606815338 0.31463494896888733 0.034427911043167114 -0.4404079464345858 -0.1756985354052997 0.8804378827456846
-0.12162408232688904 -0.05458078905940056 0.0804641991853714 -0.5511819077909106 -0.05679143501311505 0.8324501411094382
-0.036417026072740555 -0.12909258902072906 -0.08392170816659927 -0.5980492952370304 0.24756578896943301 -0.7622651904674864
-0.03801906853914261 -0.07327333092689514 0.060200028121471405 0.6924571956400462 0.13820816495761082 0.7080971228195838
0.06683336943387985 -0.3882305920124054 0.01630084216594696 0.5090470627162734 0.36642110585535514 0.7788495754147092
-0.12378077954053879 0.18437355756759644 0.09705139696598053 0.40764747740723534 -0.8460328889728894 -0.3435867938959592
-0.024444041773676872 0.15983939170837402 -0.1476328819990158 0.9466312436446811 0.26133795173047003 -0.1886577948059584
0.043732885271310806 -0.10523895919322968 -0.07072629779577255 0.3344254401431357 0.39352257507318 -0.8563291469364123
-0.1293569952249527 -0.10608404129743576 0.03315173462033272 -0.8934070176875154 -0.37566533812624797 0.24637259278822282
-0.06058919429779053 0.3255241811275482 0.04628244787454605 -0.1302394939129892 -0.30307624704412717 0.9440246091617187
-0.06279902905225754 0.04044375568628311 -0.05380091443657875 -0.3169772731953588 0.3041767219411616 -0.8983328615311611
-0.15612496435642242 -0.30448684096336365 0.004571851808577776 -0.9856633712598504 -0.09237722658284914 0.14118840804232954
-0.14490288496017456 -0.046449288725852966 0.047383613884449005 -0.950263144000993 -0.07347555370516104 0.30265706692735284
-0.11746054887771606 0.11575353145599365 0.04578230157494545 -0.8987976417336785 -0.17723740796230106 0.4009360303499586
0.06934603303670883 -0.3818705976009369 0.004813088104128838 0.7698677483380778 0.6376807374442187 0.02582493294193711
-0.11743927001953125 0.060384444892406464 0.09353909641504288 -0.04457313978303106 -0.21972765935034638 0.9745424520903646
-0.11274305731058121 -0.1287759691476822 -0.0034166108816862106 -0.6340376520920648 -0.11982575437749632 -0.7639620699468305
-0.09009015560150146 0.30088967084884644 0.004887805320322514 -0.9690212298265792 -0.09868199907571795 -0.2264060935659729
-0.1277373731136322 -0.40976911783218384 -0.026430997997522354 0.741598091885575 -0.34827961195985396 -0.5733529297080181
-0.1294773668050766 -0.07702282071113586 0.07202325761318207 -0.8733395460985504 -0.08863972202077243 0.4789791612382091
-0.02852408029139042 0.2268078625202179 -0.0989096611738205 0.5010365084606261 0.5097663945466141 -0.6993573050884153
-0.08072834461927414 -0.12984782457351685 -0.04299663379788399 -0.9128630570745585 -0.26960649183200686 -0.30658339581674904
-0.033055491745471954 -0.17880386114120483 0.007845649495720863 0.14017340767461686 -0.9888330444554231 0.0506026281323905
-0.02032080665230751 0.2071492224931717 -0.08711995929479599 0.9842503983918225 -0.1766889633925214 -0.0056712856403881426
-0.08712244033813477 0.2620110511779785 -0.03790845721960068 -0.628826941795903 0.6644768608797852 -0.403791008600933
-0.1191239133477211 0.0664883479475975 0.014899439178407192 -0.9414726455313149 -0.00556995710495163 -0.3370433700491913
-0.005381058435887098 -0.05513228476047516 -0.06675587594509125 0.18910200537005908 0.2655307947115836 -0.9453749672087034
-0.12960195541381836 0.06362638622522354 0.07830008864402771 -0.8181979928579172 -0.25936032737339043 -0.5131123318222272
0.08695259690284729 -0.13248732686042786 -0.014682690612971783 0.9233889520545584 0.38249630199536455 0.03239478636224383
-0.031108485534787178 -0.1917993426322937 -0.023984918370842934 0.2222499470626445 -0.9712133430951992 0.08572982692446367
-0.029535967856645584 0.10607568174600601 -0.14804993569850922 0.1392391300723455 -0.6785000895992731 -0.7212836425917859
-0.036267735064029694 -0.17904844880104065 0.0017388068372383714 0.0999412435607089 -0.8607040447482602 0.49919965463682353
-0.11169012635946274 0.051660120487213135 0.07455509901046753 0.829617007620611 -0.4579214911540201 -0.3194425278604929
-0.12434591352939606 -0.13883192837238312 0.015627089887857437 -0.9727614895017526 -0.22558873383850792 0.053336738815480865
-0.03849775344133377 0.22792033851146698 0.03287535533308983 0.8230768464349473 0.4586077485068358 0.3349976684578466
-0.047949086874723434 -0.18531434237957 -0.021483974531292915 -0.5942832840110012 -0.803699459048962 0.029909160294225745
-0.005879880394786596 0.3820550739765167 0.014766917563974857 0.9181243398929314 0.39414155901655407 -0.04123260787494624
0.06628144532442093 -0.15907560288906097 -0.04946437105536461 0.5074687619909319 -0.4230930682930312 -0.7506448635445254
-0.1571459025144577 -0.2983071804046631 -0.0010661816922947764 -0.9930604427183832 -0.06618448032289034 -0.0972140507969792
-0.06999529153108597 -0.11532576382160187 -0.06359962373971939 -0.5623915960476531 0.10223631694481869 -0.8205263117003208
-0.062447600066661835 0.3371813893318176 -0.027484675869345665 -0.09699900496386298 -0.3014093774652088 -0.9485481433285587
-0.11954823136329651 -0.3952964246273041 -0.004167579114437103 0.8491792578019617 0.5280609092945916 -0.006801778729032135
-0.0025372467935085297 0.02642936259508133 -0.01364220678806305 0.9908274770216701 0.11136744436025188 -0.07653889936194515
0.050179652869701385 -0.10955743491649628 -0.07076062262058258 0.3376334644599443 0.4314348271231428 -0.8365809187532306
-0.07468561828136444 0.28631895780563354 -0.01662849821150303 -0.3828193081806847 0.5076676800351122 -0.7718308778040881
-0.03507636860013008 -0.03474926948547363 -0.07128901779651642 0.080534577229144 -0.06213222482476207 -0.9948134340210973
-0.022592129185795784 0.34445929527282715 -0.015843277797102928 0.5276724875294925 0.045823602093541305 -0.8482110252735522
-0.09739383310079575 0.13250839710235596 -0.03348662704229355 -0.6929178643010226 -0.19352652923136232 -0.6945590801480982
-0.07873331755399704 0.22029733657836914 0.10064281523227692 0.6901142227773376 -0.269286088274474 0.6717345920691173
-0.02450685389339924 0.3632676303386688 -0.015945250168442726 0.5294383987206684 0.029495845362388043 -0.8478354657989088
0.006488214246928692 -0.013627584092319012 -0.019512778148055077 0.9378142830392117 0.3246105553175715 0.12301364925920723
0.0006734149646945298 0.1791439801454544 -0.011360829696059227 0.9941459978990751 0.028258534933305986 -0.10428417935945654
-0.08975980430841446 0.16773748397827148 0.0817064717411995 -0.3142926372795067 -0.10914731274066795 0.9430307536201475
-0.11169882863759995 -0.4040517508983612 0.024613887071609497 0.5376408551463848 0.8158803827056779 0.21279452998961457
-0.04934738576412201 0.3901764452457428 0.044195517897605896 -0.012198114270521223 0.5692165549723115 0.8220971472725694
-0.19284825026988983 0.1387038677930832 0.13179592788219452 -0.9434924368100369 -0.3310689348140414 -0.014675901449466913
-0.018399763852357864 0.04178323596715927 -0.04243092238903046 0.7325356110641 0.154567348919586 -0.6629483487956784
-0.1262471079826355 -0.08902145177125931 0.07392749190330505 -0.6538465396889536 -0.1427729925824298 0.7430347065419213
-0.020220572128891945 0.22544966638088226 -0.03677763417363167 0.9905064195861356 0.1372796521512 -0.007164486297012327
-0.11901509016752243 0.010254191234707832 -0.012903240509331226 -0.8259063603748406 0.3374862017297847 -0.45164338535440474
-0.0576682984828949 0.1077394187450409 -0.04250060021877289 0.09228727069074585 -0.16609853902776783 -0.9817812052597534
-0.01346051599830389 0.0667511448264122 -0.019579460844397545 0.908583008522921 0.2540042679678634 -0.3316002841940094
0.054456572979688644 -0.22446666657924652 -0.036532387137413025 0.2555791941702804 0.20925349020234568 -0.9438708875399258
-0.04217863455414772 -0.17862504720687866 0.004131929483264685 -0.016524449729221003 -0.9642920677079068 0.2643250852960352
0.05766887217760086 -0.40344128012657166 0.016355611383914948 -0.3322856423411546 -0.6523842513603355 0.6811615377213697
-0.008248823694884777 0.040714822709560394 -0.07226294279098511 0.373730597831884 -0.618620778855193 -0.6911105354520485
-0.10537756979465485 0.37639328837394714 -0.01345430500805378 -0.7238005551457546 0.40943446718001836 -0.5554063138421385
-0.1237434670329094 -0.2681278884410858 -0.021448878571391106 0.2044184557947292 0.1908362012107651 -0.9601013692511551
-0.09800443798303604 -0.24411052465438843 0.02345772087574005 0.8728661251433186 -0.4015983884503036 0.27717045652703926
0.06327938288450241 -0.15797200798988342 -0.05230436474084854 0.5288684545536829 -0.43715862223962926 -0.7274548073795019
-0.0022000079043209553 0.025142788887023926 -0.00092377356486395 0.987916261234758 0.018935495663805927 0.15382752611903874
-0.10747472196817398 0.01888330653309822 0.08241389691829681 -0.10011407215289378 0.30316991409633076 0.947663007478813
-0.15250523388385773 -0.27925992012023926 -0.013880312442779541 -0.8139842879928393 0.09928232654924746 -0.5723395832333799
-0.012677560560405254 0.10391415655612946 0.008235030807554722 0.9990612265937271 0.04237278171433914 -0.009011819285047486
-0.023798743262887 0.20029322803020477 -0.10790639370679855 0.9129716014691441 0.19575280200871129 -0.35799957460394366
-0.15105076134204865 0.1823127418756485 0.09874171018600464 -0.07908722887078465 -0.6113821592954918 -0.7873735235101077
-0.041619956493377686 0.1019907295703888 -0.12738770246505737 -0.9583471620481746 -0.1129301463909853 -0.2623308960651041
-0.11552459746599197 0.03759259358048439 0.005326485726982355 -0.847446825590672 0.3626625615645801 -0.3876980064892138
0.06656422466039658 -0.2116585522890091 -0.028385644778609276 0.5286680178216389 0.15968062106010134 -0.8336739327761183
-0.0063677020370960236 0.012041367590427399 0.012046752497553825 0.9639120227839835 -0.017770326828139886 0.265627234704784
-0.10109059512615204 0.11714654415845871 -0.029075991362333298 -0.6662663805097931 -0.2080214209377948 -0.716111861815876
-0.04157331585884094 0.2770463526248932 -0.0009286058484576643 0.9436797922474234 0.02295778626263464 -0.3300627057905497
-0.17304423451423645 0.19597582519054413 0.13155198097229004 -0.5428471448480083 0.7640806554474905 0.348565243966318
-0.05181863158941269 0.1863768845796585 -0.05772251635789871 0.36046167022076536 -0.4928552606551087 -0.7919350202802254
-0.03614463657140732 0.25126850605010986 -0.008282211609184742 0.8964812719895587 0.4355515921871416 0.08133965524409711
-0.053685735911130905 0.0583132803440094 0.07845116406679153 0.4092419222722482 0.08317258277239067 0.9086271900674583
-0.11430776119232178 0.1386982947587967 -0.007732586469501257 -0.9316569058365568 -0.0826877618626352 -0.3538052343383311
-0.029367204755544662 -0.17847059667110443 0.007254475727677345 0.15800331183516106 -0.9739762688742675 0.16249671110173763
-0.05129275470972061 0.2066153585910797 0.07674228399991989 0.681505590142216 0.41952543658327063 0.5996236641965744
-0.12823541462421417 -0.13149163126945496 0.05777683109045029 -0.9880731135072695 0.13353491963922884 -0.07668081638190456
-0.13259683549404144 0.22079414129257202 0.045016463845968246 -0.9771068917187646 0.21039287035424867 0.03157470917989005
-0.1283971518278122 -0.09428311884403229 0.05662472918629646 -0.9958486032192682 -0.08637175318888242 -0.028731162825603652
-0.088530533015728 -0.1946893334388733 0.05825675651431084 -0.26167915784452717 -0.8319265786995125 0.489307864235905
-0.11293628811836243 0.057631965726614 0.061336349695920944 -0.8121997864368444 -0.019167672846278627 0.5830644108755073
-0.016677552834153175 0.0444691963493824 -0.04047886282205582 0.7844889630657432 0.29083437138251284 -0.5477156518217947
-0.014481940306723118 0.10168836265802383 0.022758210077881813 0.9692719229007203 0.06189633729150798 0.2380772624721566
-0.1264059692621231 0.19446614384651184 0.08931928873062134 -0.3125607578043173 -0.8781818408287569 -0.3620806914479242
-0.12106499820947647 -0.3071662187576294 0.020300399512052536 0.4912198184865832 -0.3732613942150509 0.7870063668831686
-0.13462834060192108 -0.3690515160560608 -0.02735108882188797 0.24774477526798716 0.42276917220039134 -0.8717159820517291
-0.025067711248993874 0.3205863833427429 0.04187406599521637 0.4119914046477917 -0.2031527847534793 0.8882522325011326
-0.07281503826379776 0.11935608834028244 -0.043683793395757675 -0.2260150280627972 -0.1766081045704422 -0.9579805762591478
-0.1842271089553833 0.17034290730953217 0.11729571223258972 -0.7298293318810717 0.08792019062068654 -0.6779522006802919
-0.009551911614835262 -0.18208026885986328 0.04649614542722702 0.2775278198871599 -0.9555865832276211 -0.09915942287065227
-0.11343378573656082 -0.15692725777626038 0.014913034625351429 -0.9644369895215968 -0.21039672298558346 0.1599828497041074
-0.06313454359769821 0.40361812710762024 0.024147678166627884 -0.21762895625607737 0.938388530543972 0.26844851115701
-0.08733060956001282 0.3369319438934326 0.03717835992574692 -0.5739309621643214 -0.304903662349746 0.7600243465540091
-0.00048446128494106233 0.01219846960157156 -0.014015795662999153 0.9977136578361748 0.04324207471316939 0.051938231984358166
-0.044214703142642975 0.2507511377334595 0.01924818940460682 0.9083392637078436 0.27775924263560575 0.31268128363748826
-0.05277195945382118 0.247285857796669 0.04709525406360626 0.7777547183264489 0.4059529745367369 0.4798955934218624
-0.03024068847298622 -0.1408020257949829 -0.0941399559378624 -0.6746978331131755 0.13484860532071374 -0.725671198019767
-0.1102936640381813 0.057673726230859756 0.09149865806102753 0.397502544575657 -0.21975363970095055 0.890898459362268
0.028225183486938477 -0.15171416103839874 -0.10031202435493469 0.42633911739106367 -0.23954334570395724 -0.8722694208277414
-0.06940778344869614 0.3925152122974396 -0.02116953395307064 -0.07742584037645446 0.725730833273797 -0.6836080725662332
-0.06794006377458572 -0.09844975173473358 -0.06304885447025299 -0.5064365928358866 0.08950171116445382 -0.8576196249710084
-0.028553029522299767 0.11313270777463913 0.050946224480867386 0.825458312806951 0.053180058079919254 0.5619523602944634
0.05083240568637848 -0.35781723260879517 -0.00835450179874897 0.4875189120172341 0.009330468398198996 -0.8730625709449482
-0.10991673171520233 0.35902726650238037 0.006150691770017147 -0.9636939648276414 -0.24123822223311228 0.11444676617794135
-0.12060239911079407 0.0185938011854887 -0.0026210753712803125 -0.8348036794574443 0.35312413380272956 -0.4223815371087905
-0.1602960228919983 0.18025076389312744 0.10301296412944794 -0.28032354818159083 -0.17057829929444668 -0.9446278379048002
-0.08174284547567368 0.03744117543101311 0.08720360696315765 -0.19121017810140256 0.11236251457501026 0.975096576298374
-0.13673847913742065 0.17254424095153809 0.11040617525577545 0.42377539047026885 -0.8595108143662312 -0.285754402274522
-0.08438141644001007 0.3951852023601532 -0.012047801166772842 -0.36453979273425346 0.8493160439965478 -0.38180230083555244
-0.08495316654443741 0.020433392375707626 -0.05177563056349754 -0.5053693162530843 0.2574564050295189 -0.8236006639744569
0.09628142416477203 -0.1539074182510376 -0.017109543085098267 0.9994068198308679 -0.03430032223111055 -0.0030816181452612236
-0.1404755562543869 -0.181959331035614 0.052139975130558014 -0.6740861138454726 -0.7250283158606231 0.1412156235018534
-0.1362111121416092 -0.00903815496712923 0.006126329302787781 -0.8573990586147598 0.272691119300304 -0.4364703973252609
0.10290911793708801 -0.4246682822704315 -0.006705672945827246 -0.03571079364920885 -0.9804814556187171 0.19334128996348748
-0.021616945043206215 0.11797812581062317 -0.1506241112947464 0.7562262692175167 -0.2808434804744419 -0.5909727313678338
-0.1269913762807846 -0.09592396765947342 0.05285779759287834 -0.9800211196848886 -0.19884165517638883 -0.004538847683217982
0.04796314612030983 -0.37099066376686096 -0.009215581230819225 0.1102692625532237 0.033479039410078945 -0.9933377288999682
-0.127488911151886 -0.3695774972438812 -0.01883750408887863 0.8458746662219153 0.17932789723588635 -0.5023321155539616
-0.13370613753795624 0.08762410283088684 0.07798197865486145 -0.09436855913987173 0.3024460085206584 -0.9484835196121155
-0.02777303196489811 0.1545657515525818 0.05786255747079849 0.8397724565822102 -0.34172638185721477 0.42190674456407673
0.0257157813757658 -0.1742791086435318 0.045596130192279816 0.5112364839799471 -0.8594398236602768 -0.0006685466427321881
-0.02232327312231064 0.3640642464160919 0.043734874576330185 0.42852157562695176 0.04231672402585246 0.9025400567785979
-0.04297879338264465 0.18189392983913422 -0.14505161345005035 0.14834318196707894 0.6929190392554855 -0.7055901823304638
-0.011226761154830456 0.056254979223012924 0.02599151059985161 0.9483383236307552 0.1072636925107122 0.29857817100748746
-0.07048492133617401 -0.1769540160894394 0.07698929309844971 -0.16371811209871245 -0.1989661988878895 0.9662343563913147
-0.03719587251543999 -0.14874687790870667 0.07139469683170319 0.4156468176935315 0.11713079595799321 0.9019523821020083
-0.14351321756839752 -0.2354489117860794 -0.000312258955091238 -0.7144759837696256 0.46021580843308646 -0.5269966587035503
-0.10865592211484909 0.15211892127990723 -0.026880865916609764 -0.8417931471384137 -0.17145024333835002 -0.5118487193400268
0.012131176888942719 -0.02627415582537651 -0.033767715096473694 0.8621157721282516 0.5066980911563667 0.0036660423078339003
-0.08262673020362854 -0.2237156629562378 0.028760602697730064 0.7348812325119551 -0.6490800646989385 0.1965824094677125
-0.11356880515813828 0.061241816729307175 0.0590718574821949 -0.7190409387077661 0.07053931485454017 0.6913785746767878
-0.06553375720977783 -0.17832762002944946 0.0023659635335206985 -0.1555892894063446 -0.8800985658217304 -0.4485738372448423
-0.012510893866419792 0.3940531611442566 0.020628739148378372 0.7183458888002298 0.6726181461105616 0.17766263976030305
-0.054331809282302856 0.1414361298084259 0.07471485435962677 0.40295565261241956 -0.3030933418387187 0.8635746453901577
-0.04594173654913902 0.2493954598903656 -0.0830402672290802 -0.18710816117014248 0.7180129753055252 -0.6704087583828507
0.05055119842290878 -0.16949008405208588 -0.054124072194099426 0.49569404202475503 -0.8189746724710909 -0.28908113489473797
-0.12722714245319366 0.1914641410112381 0.004849685821682215 -0.9472840272109387 -0.05012843290597337 -0.31644922500365985
-0.11895092576742172 0.18055163323879242 -0.013102404773235321 -0.9264617351354236 -0.08887505664407687 -0.36574564609352817
-0.07862713187932968 -0.21495749056339264 0.036092016845941544 0.5831962838290502 -0.6064187144297556 0.540498323140182
0.0669824555516243 -0.16029484570026398 0.024284634739160538 0.5873405929878021 0.030233275359625757 0.8087749853264296
0.06931845843791962 -0.23321710526943207 -0.03246584162116051 0.6290672114943743 0.1038551538695392 -0.7703820808127786
-0.045583389699459076 0.21736402809619904 0.06137559935450554 0.7348758788600274 0.45022569246813493 0.5072023940315058
-0.01799066551029682 0.12423396110534668 -0.11971262097358704 0.7005105485763177 0.5856735503199192 0.4077639804948051
0.004095145501196384 -0.17906396090984344 -0.027897795662283897 -0.10969117224053473 -0.9855546270229849 -0.12903458406986387
-0.14127212762832642 -0.2953171133995056 0.025783464312553406 -0.36550314645529475 -0.255065386286366 0.8951810423874415
-0.0486007034778595 0.1452409327030182 -0.12979820370674133 -0.7592017827555646 -0.46772529974606863 0.4525988257145868
-0.19765986502170563 0.14862963557243347 0.13361716270446777 -0.9796405978829417 -0.19581403052206436 -0.044285036188951
0.05631154403090477 -0.35562118887901306 -0.004991447553038597 0.8970747244050311 -0.31735512778670555 -0.30747790441122996
-0.17823369801044464 0.18447357416152954 0.1417258083820343 -0.26007575886887097 0.445979224200033 0.8564246208690627
-0.04667394235730171 -0.05675342679023743 -0.06852219253778458 -0.22273684301003227 -0.0014211495580365064 -0.9748775713390159
-0.055989284068346024 0.07495228946208954 -0.04474317282438278 -0.06920856948567103 0.24794549491360007 -0.9662987144055388
-0.030076608061790466 0.18357431888580322 -0.1362527310848236 0.5431081506237672 0.6202001167054452 -0.566025928703433
-0.0716799944639206 0.2633824050426483 0.05321432277560234 0.6356465803556807 0.6058220418031065 0.47846951684265565
-0.0021332609467208385 0.024278264492750168 0.0006944492924958467 0.9858522413334723 -0.021385496849116416 0.16624686096972072
-0.01812252216041088 -0.1701188087463379 -0.08920364081859589 -0.3615653431442793 -0.8627113843507592 -0.35355278240816657
-0.02434730902314186 0.3619512617588043 -0.015816347673535347 0.5560749112269198 0.02300019939861265 -0.8308138684035055
0.0701032355427742 -0.17365412414073944 -0.024457138031721115 0.6506344283430734 -0.570167494466457 -0.501581368183194
-0.08406954258680344 0.2710396349430084 0.059695709496736526 0.3568556801468334 0.8513841571281928 0.38444640788809276
-0.07209963351488113 0.3710783123970032 0.04769345745444298 -0.3226945557461847 0.11914941935504353 0.9389737161172983
-0.03620902821421623 -0.18410080671310425 0.026165837422013283 0.14036117487407754 -0.9621313316743378 -0.23367079663178722
-0.13812175393104553 0.20403485000133514 0.1270361840724945 0.27897713888856024 0.36926397565327396 0.8864625611171018
0.0611688531935215 -0.2488534152507782 0.01082563679665327 0.5671442232647234 0.02452142564779165 0.8232533812269789
-0.019861562177538872 0.20021678507328033 -0.037759508937597275 0.8961897746111449 0.014979200684979724 -0.4434179872640085
-0.11164290457963943 -0.09272783994674683 0.08255718648433685 -0.5496413727919496 -0.04393686850791253 0.8342445162547367
-0.09260514378547668 -0.1423293948173523 0.0825890377163887 -0.09865319450927452 -0.21806376243101544 0.9709354987472366
-0.07752015441656113 0.3399616777896881 0.043290846049785614 -0.40832881080738176 -0.2199707971291357 0.8859347778899992
-0.17526650428771973 0.18440118432044983 0.10898858308792114 -0.5945804731685057 0.0751438145862815 -0.8005170004791519
-0.08495362102985382 0.2859433889389038 -0.007368080783635378 -0.7814536990210482 0.2292002878213571 -0.5803424371428717
-0.09124093502759933 0.36281269788742065 -0.02576475776731968 -0.43624891222362727 -0.12095757202842171 -0.8916592131261197
-0.1413799524307251 -0.24082602560520172 -0.007595089264214039 -0.6460285427825279 0.41480681142258463 -0.6407670646246668
0.06838548183441162 -0.1740756332874298 0.0012827898608520627 0.575604642397572 -0.6075131833801719 0.5473637069350258
-0.03530021756887436 0.24690945446491241 -0.02398713119328022 0.8598488407662374 0.4935964601808772 0.13047032432651265
-0.15775786340236664 0.12161193042993546 0.0963856652379036 -0.02888480223529549 0.4565409414738075 -0.8892333984719857
-0.1329420506954193 0.18101254105567932 0.09721652418375015 0.3175190931810529 -0.7716161587212661 -0.5511715967516103
-0.10068408399820328 -0.42329075932502747 0.0602390319108963 0.09367158826051655 0.9878076433440167 0.12434505741641812
0.046581435948610306 -0.35709884762763977 0.020394310355186462 0.38422222794949323 0.29550017957412755 0.8746730380097388
-0.1279381662607193 -0.25167012214660645 -0.017524488270282745 -0.09913610317438738 0.36071072962669365 -0.9273940923790573
-0.14548060297966003 -0.17800189554691315 0.054728638380765915 -0.8995071490181561 -0.42195366130169676 0.11332253341380066
-0.0985136553645134 0.07650993019342422 0.07144924998283386 -0.016431277971441765 0.38312879948407313 0.9235487730001692
-0.11907666176557541 -0.2542104125022888 -0.01680828258395195 0.25316759700752833 0.24094290697136034 -0.9369379293238289
-0.1302386373281479 -0.09088069200515747 0.06762464344501495 -0.947536189830106 -0.12141481286529196 0.29569175196331005
-0.07051760703325272 0.0031881160102784634 0.08669199794530869 0.33190330432038684 -0.10052319729779424 0.9379420469230695
-0.13904111087322235 0.07152481377124786 0.0854991227388382 -0.7634599363211481 -0.5642962196792306 -0.3141634957919812
-0.13283786177635193 0.07182247936725616 0.09645825624465942 -0.31929584060803745 -0.5349443383244914 0.7822306060651034
-0.11844894289970398 -0.29685986042022705 -0.021511834114789963 0.6741612337433058 -0.14439004759446206 -0.7243328965837275
0.0408439077436924 -0.33820635080337524 -0.014170636422932148 0.04198654783099016 -0.2790456060863193 -0.9593595152627375
-0.08452387154102325 0.3874117136001587 -0.022683395072817802 -0.35289313637730074 0.5271769061334074 -0.7730141938783532
-0.1326175481081009 0.18099457025527954 0.03743607550859451 -0.9781707708818773 -0.20551834172795047 -0.030727092373788404
-0.07817868888378143 0.40104779601097107 -0.0034447284415364265 -0.3381274329881135 0.9095939723474209 -0.24147182968228015
0.036079585552215576 -0.12244448810815811 0.02541462518274784 0.4089201625757045 0.5184521618580322 0.7509937792710352
-0.1111934557557106 0.010423844680190086 -0.025308262556791306 -0.814056172212701 0.29708359291691144 -0.49905299047494395
-0.11273211240768433 -0.26980075240135193 -0.016745667904615402 0.8090184123089601 0.07752990497027401 -0.5826476828928352
-0.11348617821931839 0.06462138146162033 0.05817599967122078 -0.7296478948342326 0.14686689556012522 0.6678653041987613
0.04709233343601227 -0.19373559951782227 0.004451088607311249 0.04128234778413515 0.049644800928205134 0.9979134038092827
-0.030320245772600174 -0.18808382749557495 -0.008631423115730286 0.288688200067153 -0.8435612266175326 0.45283946392679947
-0.012087062001228333 0.04612787812948227 -0.07787927240133286 0.14066242528062384 -0.537176390228974 -0.8316583480581086
0.026891808956861496 -0.06185796111822128 -0.003490911331027746 0.6639581622782195 0.4677443331681256 0.5834164871969553
-0.12211893498897552 -0.11826665699481964 0.04600438103079796 -0.9740107824692381 -0.08627031256991623 -0.20942881559792936
-0.1057790219783783 0.14811450242996216 0.0723130851984024 -0.502670781895478 -0.13780533445307594 0.853423561207953
-0.06445213407278061 0.3989676833152771 0.033601127564907074 -0.2362634622297345 0.7830007963380406 0.5754036229893005
-0.10252553969621658 0.012281185016036034 -0.038607899099588394 -0.7842260909907325 0.1865710582836903 -0.5917606597437001
-0.0578870065510273 -0.0721314549446106 0.07931701838970184 0.571569858258861 -0.04877761759252007 0.8191023386317142
-0.14213800430297852 -0.02355978824198246 0.05594050511717796 -0.8727569724626701 0.08590481970893685 0.4805368133333484
0.015178216621279716 -0.19535720348358154 -0.016187617555260658 -0.8063061277100065 -0.5914794398470754 0.004743485583899876
-0.07728084921836853 0.40274831652641296 0.002976343734189868 -0.34380257414501975 0.9330519557443535 -0.10589541015971961
-0.010284491814672947 -0.07399043440818787 0.03617045283317566 0.5629437448943583 0.28069815396489745 0.7773692085778896
-0.07322005927562714 0.07708963006734848 0.0800153985619545 -0.07778669072031458 0.16605534297016733 0.9830436683168466
-0.04803059622645378 0.28956323862075806 0.029346991330385208 0.6801240540064114 -0.17091118413159878 0.7128959519457373
0.0711941123008728 -0.17151816189289093 0.0026843328960239887 0.4955775465882801 -0.6963633082648231 0.5191156308762165
-0.044027186930179596 0.2478208690881729 0.021924613043665886 0.8868597601839925 0.3483124392925168 0.3035757078563567
-0.0003969779354520142 0.015048169530928135 -0.05816797912120819 -0.8198659965712162 0.3533409685504158 -0.45052181701904376
-0.12078721821308136 0.048740316182374954 0.03830181807279587 -0.9893725568134976 0.018132042465794584 0.14426771246658526
0.04316404089331627 -0.09759964793920517 -0.06772919744253159 0.3671077621033724 0.37844520798618264 -0.8497123722506038
-0.07445584982633591 0.2477210909128189 0.09231337159872055 0.6866589056661396 0.5200400617567611 0.5079939777570238
-0.015760041773319244 0.11544978618621826 -0.11316504329442978 0.8603499080422656 0.3199041661961631 0.39681149199840837
0.06758290529251099 -0.2600572407245636 -0.031674835830926895 0.6999313417343997 -0.1300351383353187 -0.7022727245564914
-0.11731559783220291 -0.026821773499250412 -0.02837698720395565 -0.8083592683251045 -0.10605958336489144 -0.5790566967831106
0.031160729005932808 -0.3785903751850128 0.02166445180773735 -0.27388492198242287 -0.2193729145820379 0.9364094050459254
-0.11748941242694855 0.06324916332960129 0.01163453795015812 -0.9386369482431742 -0.0020300473728112247 -0.34490079486774894
-0.014711475931107998 0.20624388754367828 0.004001961089670658 0.8340166257574325 0.5173230680584545 0.19181530495446533
0.05050716921687126 -0.30833500623703003 0.01251175720244646 0.47686264884100404 -0.03930406326544373 0.8780986304232387
-0.08996137231588364 -0.14963874220848083 -0.011885478161275387 -0.12945498080436166 -0.18190726553751094 -0.9747569721164389
0.028482649475336075 -0.10275240242481232 0.017392832785844803 0.553284244960974 0.4081959671144074 0.7261216128924264
-0.022590577602386475 0.18221618235111237 -0.04287243261933327 0.6251380140189425 -0.10744906382261626 -0.7730828947222256
0.07301373779773712 -0.23394005000591278 -0.0005209150840528309 0.8435280352870536 -0.016359993371400258 0.5368359193474772
0.02973039261996746 -0.3120432198047638 -0.016666144132614136 -0.6554589803523853 -0.2495164940506321 -0.7128218881825193
-0.15078507363796234 0.16797563433647156 0.1304796040058136 0.6716132445462749 -0.38960428580096507 0.6301937402383061
-0.1453668177127838 0.11964473128318787 0.11919849365949631 0.9198796823805468 -0.03586366298822365 0.39055750872378797
-0.08706562966108322 0.2728007733821869 0.058641403913497925 0.20758779648991885 0.9322291047240792 0.2964054706880456
-0.023671511560678482 0.11287709325551987 -0.14976949989795685 0.6802188186620114 -0.40441509771962536 -0.6113516070760618
0.03895273432135582 -0.07041355222463608 -0.057066116482019424 0.5987689842944715 0.5310733976228234 -0.5995304410822838
0.028473947197198868 -0.3790934085845947 -0.008713969960808754 -0.30321175421305735 -0.09362317639254272 -0.9483128876848671
-0.08111805468797684 0.343311607837677 0.04262125492095947 -0.48442604420301505 -0.18059271000846305 0.8559892994597641
-0.11446245014667511 0.0512414313852787 0.08145882189273834 0.47941190429177094 -0.8307262324551975 0.282945494281374
-0.041436947882175446 0.11476875841617584 0.06457687169313431 0.6103781927677412 0.02391140393081332 0.7917491437037643
0.07432890683412552 -0.25148001313209534 -0.02551269717514515 0.9141125686367815 -0.13404308807276322 -0.3826625960296919
-0.1333656907081604 -0.4207708537578583 -0.005532585550099611 0.0363749859780599 -0.9926892156909826 -0.11508684306174208
-0.07027916610240936 0.3742504417896271 0.04774622246623039 -0.24996849666952048 0.22078622345325272 0.9427455617535573
-0.05826011672616005 0.32808199524879456 -0.021773509681224823 -0.048658334950218964 -0.3886811970320119 -0.9200865684888758
-0.12395226955413818 0.16141225397586823 0.054604947566986084 -0.8950642778538046 -0.18978161536241156 0.4035379498640509
-0.06215565279126167 -0.16860219836235046 -0.05468424782156944 -0.691109556229789 -0.6374920697425207 -0.3405458005955463
-0.09169544279575348 0.26602303981781006 0.07961376011371613 0.08945656382673203 0.9159798976671287 0.39112446900958564
0.06385742872953415 -0.260330468416214 -0.03447144478559494 0.5401740932671995 -0.08177697070604145 -0.8375705797275248
-0.02016700804233551 -0.015025394037365913 0.03636406734585762 0.7731631147317327 -0.04034728817323146 0.6329225026457757
-0.0473710261285305 -0.1896989345550537 0.035727065056562424 0.2858812781209538 -0.9308424987890141 -0.22760522240966782
-0.052660953253507614 0.1852668970823288 -0.08465420454740524 -0.20363796405175094 -0.749944337884419 0.6293767311173476
-0.07905938476324081 0.30317002534866333 0.03321817144751549 -0.48957185796939406 -0.04483449468638162 0.8708095451765628
-0.003419289132580161 -0.1787145733833313 0.031892869621515274 0.17439168851153616 -0.9772067918201084 -0.12105546249032606
-0.013119284994900227 -0.1636205017566681 0.06341827660799026 0.2777995353002946 -0.20912976760801677 0.9375991459505268
-0.018674133345484734 0.12687236070632935 -0.15177857875823975 0.8887988592263545 -0.07284464814983112 -0.4524712643625653
-0.05760723724961281 0.2704560160636902 -0.04033825919032097 0.2345308676398073 0.9228764835543355 -0.3054411043499279
-0.12345919013023376 -0.2585744559764862 0.03647678345441818 0.024323731777592845 -0.13606710303478622 0.9904009791716346
-0.04137350618839264 -0.12307132035493851 -0.07742252200841904 -0.516908945075598 0.17317170370420984 -0.8383416389140014
0.025269316509366035 -0.20826981961727142 -0.02691171132028103 -0.7447580040363541 -0.11751466188480722 -0.6569062487645292
-0.10847233980894089 -0.0004173983761575073 -0.03272303566336632 -0.8032482823397314 0.1737080287342508 -0.5697523301150527
-0.13687211275100708 -0.22108246386051178 0.003560875076800585 -0.6834378118465235 0.6015507638623772 -0.41358123245020023
-0.10328968614339828 0.3496685326099396 -0.014144795015454292 -0.783730664134593 -0.23291418364430547 -0.5757753287111705
-0.14639835059642792 -0.05486027151346207 0.033361393958330154 -0.9936474124620764 -0.11206018362623925 -0.010360258349767257
0.00396797014400363 -0.08821655809879303 0.03338184207677841 0.5515772956779263 0.3323125139652031 0.7650691994550245
-0.1032107025384903 -0.007174237631261349 -0.04227660596370697 -0.7065147634606808 0.13583073649690874 -0.6945407835647996
-0.13512566685676575 -0.0877678245306015 0.017023641616106033 -0.9088496707800008 -0.2928896507123633 -0.2969981960023905
-0.03261847794055939 0.4036504924297333 0.02073778212070465 0.23771106260482602 0.9403843199439454 0.24325045019248773
-0.15350575745105743 -0.2611910402774811 -0.004725278355181217 -0.8423094688501369 0.32779282651469344 -0.4278628536936907
-0.1940617859363556 0.14094753563404083 0.13803045451641083 -0.876399299644743 -0.4759788294401559 0.07326951280705357
0.07689203321933746 -0.3901298940181732 -0.001268547959625721 0.7396848334381609 0.6617667013181279 -0.12219320851865641
0.026884326711297035 -0.14465199410915375 0.04685179889202118 0.5424536538236122 0.3061365206363182 0.7823199244465794
-0.013729083351790905 0.08977276086807251 -0.004927874077111483 0.9568885500151495 0.11553695943271308 -0.2664873615294891
-0.1300019770860672 -0.3687479794025421 -0.022206036373972893 0.4253984483882094 0.5028198839076641 -0.7524681551108905
-0.04574979841709137 0.06786728650331497 0.07264009863138199 0.5510890981802764 0.0959203361551891 0.8289150107090142
-0.03861008211970329 0.09622550755739212 -0.10574083030223846 -0.8534322826627705 0.08576054394460235 0.5140996673908075
-0.14591644704341888 -0.05001451075077057 0.02666395716369152 -0.9676536316926694 -0.15591240096495382 -0.198337521153541
-0.12822085618972778 -0.21365319192409515 0.034167733043432236 -0.7579707438667362 0.20248633564778626 0.620064218704836
-0.007510585710406303 -0.11234785616397858 -0.09226332604885101 -0.08210096186943197 0.43812153574945484 -0.8951586183312169
-0.13057972490787506 -0.0071184043772518635 0.06783829629421234 -0.7762348046530405 0.16023418147110668 0.6097413674120694
-0.050217047333717346 0.23914985358715057 -0.0914594754576683 -0.3322993110542315 0.558633931831335 -0.7599376935509559
-0.14724314212799072 -0.37167444825172424 0.00033309226273559034 -0.7042207688132559 -0.12688879181977303 0.698550172344539
-0.08091163635253906 0.04543042182922363 -0.04293248802423477 -0.49984299525870235 0.2534206702169112 -0.8282118955905068
-0.027141176164150238 0.1491386890411377 0.05247974023222923 0.8634332737434465 -0.2725970853313205 0.42446885735180095
0.018746651709079742 -0.1126881092786789 -0.08922679722309113 0.3666548328366569 0.48793904254980747 -0.7921361778842704
-0.09986685961484909 0.1900394707918167 -0.05355464667081833 -0.6768405750424045 -0.24749786413612476 -0.6932760223924693
-0.10700470954179764 -0.1347861886024475 -0.006374953780323267 -0.5022282083097137 -0.08744295536343898 -0.8603025957971547
-0.022480174899101257 0.1943408101797104 -0.10241156816482544 0.9886782025135027 -0.1423420549211036 -0.04747790302348033
-0.013677702285349369 0.09136923402547836 0.020600251853466034 0.9831406419284099 0.044383846206043326 0.17738250303948383
-0.06934855878353119 -0.15766023099422455 -0.008736795745790005 -0.08251998793502592 -0.008870776596047132 -0.9965499289618089
-0.003246304113417864 -0.04208982735872269 0.01714557595551014 0.7546802737931345 0.2436782226212408 0.6091622182700374
-0.036216236650943756 0.009193879552185535 0.05993110314011574 0.7736248443543213 -0.16294361986228892 0.6123348568748361
-0.11560450494289398 -0.27243572473526 -0.019396092742681503 0.6683945872559057 0.07425708341300963 -0.7400909142058163
-0.03064257837831974 -0.003789528040215373 -0.0665755644440651 0.2925028633346985 0.15651577681188378 -0.9433689026833434
-0.06373302638530731 0.16014590859413147 -0.053856734186410904 0.07124698429438542 -0.18805429180996736 -0.97957105437064
-0.05277261883020401 0.1691056191921234 0.08674152940511703 0.22838736313655694 -0.13976703920660138 0.9634855406859778
-0.1269732266664505 -0.01880153827369213 -0.013599944300949574 -0.8416258882003127 0.10737671773198025 -0.5292788535357723
-0.0015492535894736648 -0.04169936850667 -0.062170036137104034 0.3654056923808984 0.2922261643799078 -0.8837887467191713
-0.18943022191524506 0.1796964555978775 0.12306838482618332 -0.7705665800677544 0.4554911850322553 -0.44581938724173625
-0.07511303573846817 0.3790760338306427 0.04469361528754234 -0.3906429837997154 0.3936561722623449 0.832125517724228
-0.1465512067079544 0.1680395007133484 0.12548190355300903 0.7313361972089665 -0.521083753239556 0.4400216912399947
-0.13634589314460754 0.012522985227406025 0.027741940692067146 -0.9073192937766433 0.3988135020253113 -0.1331145737436752
-0.0374532975256443 0.40336889028549194 -0.0007429909310303628 0.21639488711768734 0.9284394845109417 -0.3019492944690882
0.09214916825294495 -0.41485998034477234 -0.020960813388228416 -0.43098563931815903 -0.3673454403678796 0.8242018600697565
0.024470465257763863 -0.3916933834552765 0.00294097769074142 -0.2882321299667722 -0.8827101225191581 -0.3711402414950854
-0.1173337772488594 -0.4218761622905731 -0.0024381207767874002 0.4362801325927119 -0.840182567186036 -0.32210696934647015
-0.13876570761203766 -0.3000640273094177 -0.025499844923615456 -0.19290783366719855 0.0003292141699160651 -0.9812168258483234
-0.05664839595556259 0.1670556515455246 -0.05369287356734276 0.192119571122219 -0.20202731307489535 -0.9603515164581939
-0.06470076739788055 0.2039816677570343 -0.09788819402456284 -0.9711345409177047 0.13547823193574415 -0.19632460902322918
-0.055477481335401535 0.13803289830684662 0.07414662837982178 0.49775831505086576 -0.24025951339159182 0.8333738812937195
-0.08146250247955322 -0.12760071456432343 -0.04302172362804413 -0.9060666606660754 -0.2776644021619871 -0.31928934558085886
-0.09243350476026535 -0.2021651566028595 0.0425599031150341 -0.11249513213330377 -0.45433946749662885 0.8836970598124622
-0.08602217584848404 0.27043476700782776 0.0638497844338417 0.3485120961094943 0.8628207384966098 0.36616893926920074
-0.1111488789319992 -0.42378485202789307 0.01767631433904171 0.633823867309656 -0.736644000886372 -0.23584512118496434
0.013679798692464828 -0.1768806427717209 0.040641095489263535 0.3385907577223181 -0.9177796285591482 -0.2074532530158507
-0.05742184445261955 0.1915978640317917 -0.08084160834550858 -0.47550868957198605 -0.8589897983885809 0.18981046442669505
0.025417372584342957 -0.305042028427124 -0.00785986240953207 -0.9938963189964389 -0.10458750983796031 -0.03509358732337759
0.063453309237957 -0.22899603843688965 -0.03504370525479317 0.41673469197514784 0.1280192062279469 -0.8999684879711873
-0.10707048326730728 -0.01142122969031334 0.08568532764911652 -0.43558963923431515 0.050160380538768555 0.8987466842308378
-0.10509122163057327 -0.26757073402404785 0.0023107982706278563 0.9529498163019589 -0.29670361478624513 -0.06207747242630239
0.07279165834188461 -0.15644225478172302 -0.046552274376153946 0.47684469763991205 -0.4518633128190372 -0.7539487256179335
-0.07449519634246826 0.38087597489356995 0.04442203789949417 -0.3906429837997151 0.39365617226234506 0.832125517724228
-0.030171874910593033 -0.012535507790744305 0.04727182537317276 0.7828300576306189 -0.06421874641902492 0.6189127995755226
-0.1581956446170807 -0.3939257264137268 -0.0356893353164196 -0.4039080997920469 0.42012296143768546 -0.8126222641518056
-0.020090840756893158 0.14324593544006348 -0.14788982272148132 0.9558688118247098 0.28424197125890194 -0.07430556073182594
0.06086162477731705 -0.31281474232673645 0.002428897889330983 0.8724383240604657 -0.052257892606492946 0.48592230178382856
0.07176461815834045 -0.10435444861650467 -0.04256158694624901 0.821729460255829 0.5656808827195393 -0.06903501338673715
-0.05291260406374931 0.2288816124200821 0.06248462572693825 0.761641347802148 0.4453860928024041 0.47067365090509977
-0.1410788744688034 -0.2614307999610901 0.03142552077770233 -0.4804979856324287 0.08182510798879748 0.873170279788427
-0.017366304993629456 0.12619978189468384 -0.12354101240634918 0.8002067673720377 0.46942795607964677 0.3732378913010828
-0.019439224153757095 0.23391768336296082 -0.07053498178720474 0.9865539792064238 0.14616765865128825 -0.07311813507175581
-0.024876948446035385 0.110775887966156 -0.024858525022864342 0.7929333372147385 0.06310179051869899 -0.6060320839417926
-0.017638692632317543 0.06713955849409103 0.0414511039853096 0.8835577489879882 0.049299438852101016 0.46572016225642116
-0.12396349757909775 -0.12285421788692474 0.049791235476732254 -0.9622520659540048 -0.02711982874254531 -0.270805237128503
0.021082207560539246 -0.21995264291763306 -0.016729064285755157 -0.9969159124299422 -0.07843629016706301 -0.0025321786674971153
-0.13107067346572876 -0.056242916733026505 0.07236172258853912 -0.7440599140928716 -0.057436015487375494 0.6656395033086921
-0.044167112559080124 0.15973910689353943 0.0801929458975792 0.4379633038033198 -0.3583847214511825 0.8244686385497264
-0.1470547318458557 0.1055762842297554 0.08741383999586105 0.29467408410869944 0.5051687188169187 -0.8111545781684106
-0.02380971610546112 0.10218080878257751 -0.14124952256679535 0.38299393101200235 -0.7497420449556088 -0.5396318326727542
0.05677993595600128 -0.19139496982097626 0.0029867226257920265 0.1901052291483399 0.11559869791569427 0.9749343274757809
0.0547214075922966 -0.3673758804798126 0.01908647082746029 0.5618644426259243 0.19334920664336688 0.804316127155884
-0.02534460835158825 0.018358923494815826 -0.05039287731051445 0.8098832023560021 0.48139702525059636 -0.33518070144545004
-0.018130822107195854 0.35202595591545105 0.040818627923727036 0.7047671974553045 -0.04276485719768802 0.7081485468317064
-0.11624933779239655 0.21994154155254364 0.11974340677261353 -0.011643182700808583 0.31714067248430833 0.9483070336936221
-0.052595123648643494 -0.04778006672859192 -0.06757381558418274 -0.23068287905022855 -0.018753079341459155 -0.9728482570927033
0.04753296822309494 -0.318752259016037 0.01364537701010704 0.3217038368151399 0.0007153233424082342 0.9468400760904313
-0.13033956289291382 0.17702323198318481 0.03040931560099125 -0.9733523538820781 -0.20705375928494232 -0.09855930173348025
-0.015861770138144493 0.19677023589611053 0.02591734007000923 0.8302499248988855 0.4448723766668022 0.33581785343281834
-0.007530259434133768 0.15843214094638824 -0.021293040364980698 0.8654192892606071 -0.3644387835168747 -0.3438514604366346
-0.09020762145519257 0.2843104302883148 0.006420659366995096 -0.957438390943149 0.18912631558329085 -0.2180434917673158
-0.05136340856552124 0.2667105495929718 0.032743070274591446 0.7866433178856868 0.1183264165336594 0.6059629935698229
-0.037837810814380646 -0.012094184756278992 -0.06999187916517258 0.09312737852885651 0.15109017496748536 -0.9841234934684965
-0.019396258518099785 0.21827849745750427 -0.08405449986457825 0.9890899202937308 0.09584090982754394 -0.11187336401829473
-0.07216835767030716 -0.11161309480667114 -0.06110827997326851 -0.5892335781013073 0.10589511629645576 -0.8009931427811918
-0.043865546584129333 -0.13269129395484924 0.0729307159781456 0.4771953415408976 0.08631275024739282 0.87454829206648
0.03826053813099861 -0.32324522733688354 -0.018417052924633026 -0.33321183207637456 -0.24578068275413129 -0.9102536629694049
-0.013564341701567173 0.06216869130730629 -0.06338196247816086 0.3838545164549653 0.6473509760850558 0.6584773526544784
-0.08756732195615768 0.39738017320632935 0.00582794938236475 -0.4698778540003257 0.8826043282812323 -0.014980054048087343
0.020890023559331894 -0.1516750156879425 -0.10323444753885269 0.2439687031440929 -0.23989573669142558 -0.9396431808955289
-0.1384977400302887 -0.015429781749844551 0.005375576671212912 -0.8533558792064552 0.22264239614112102 -0.47139591307553586
-0.12118060141801834 0.0977168008685112 0.0314561128616333 -0.9847993812363197 -0.11218449511864509 0.132607759092508
-0.03727183863520622 0.10197866708040237 -0.036048006266355515 0.4712949253726751 0.06263822138179338 -0.879748570069932
-0.009058690629899502 0.014713860116899014 -0.04404136538505554 0.4375863369203919 0.6714048305037722 -0.5981084778840661
-0.06409254670143127 0.40356552600860596 -0.006018019746989012 -0.10118410565191183 0.9106962368922527 -0.4004923730531117
-0.020143801346421242 0.2077483832836151 -0.09057488292455673 0.9956537964452725 -0.07094589083724329 -0.06033405503880793
-0.039315491914749146 -0.1963251531124115 -0.036937959492206573 -0.13199458409997866 -0.9909008245369892 -0.026324621558314804
0.030632900074124336 -0.2821366786956787 -0.025483135133981705 -0.726393042663348 -0.20258082556837942 -0.6567451230746351
-0.1321631819009781 0.08861467987298965 0.0778799057006836 -0.10313703709816266 0.37941839819059964 -0.919458770523775
-0.11034148186445236 -0.15365344285964966 0.07237665355205536 -0.17487860981001574 -0.29593491101961245 0.9390633632885113
-0.013508680276572704 0.05950455740094185 -0.02432762272655964 0.8541062718048553 0.3416293539031563 -0.3921630541182109
-0.010149963200092316 0.06133429706096649 -0.010588303208351135 0.9390820118677711 0.23137338112882183 -0.254148251009911
-0.1398744434118271 0.07840268313884735 0.09948652982711792 0.15505532812951114 -0.5112768530722382 0.8453128561255877
-0.019892897456884384 0.21130970120429993 -0.0486401803791523 0.9907133751412659 -0.10781465545028963 -0.08284327604782896
-0.0792437419295311 0.2745670974254608 -0.025862932205200195 -0.5122972398978863 0.7154190126499084 -0.47510753975498865
-0.026023825630545616 0.19781216979026794 -0.0821104645729065 0.8779676953341642 -0.42765503260603277 0.21513693089832225
-0.09886002540588379 0.04685158282518387 -0.019829129800200462 -0.827766080124829 0.20346896605606468 -0.5228801932057201
0.027219153940677643 -0.17844967544078827 -0.08925796300172806 0.18491872117707456 -0.8396865112889481 -0.5106188689400644
