ply
format ascii 1.0
comment VCGLIB generated
element vertex 392
property float x
property float y
property float z
property float nx
property float ny
property float nz
element face 0
property list uchar int vertex_indices
end_header
-0.05799206718802452 0.34091877937316895 -0.02616167813539505 0.08746099156415511 -0.15168070348684096 -0.9845524562685077
-0.005051315762102604 -0.0798947811126709 -0.06628698110580444 0.1732720080589226 0.24404628691207605 -0.9541583836385118
0.04653545096516609 -0.18008854985237122 -0.028151707723736763 0.38276223634545087 -0.43484934989021357 -0.8151068109934353
-0.061659760773181915 -0.17919598519802094 -0.01838103123009205 -0.8293781061928864 -0.5522359631782258 0.08466048629979889
0.0737871453166008 -0.41983309388160706 -0.002081603044643998 -0.15965876278857344 -0.9840138989945179 -0.07890327021378016
-0.1409471333026886 -0.37840837240219116 -0.03267718479037285 0.19401106985072175 0.3920428530936667 -0.8992564184444591
-0.0609823539853096 0.1740608662366867 -0.12912024557590485 -0.8514210800650771 0.21397053728134338 -0.47885149430314067
-0.12320346385240555 0.21348650753498077 -0.01221791747957468 -0.9567438568532077 0.1605085978589979 -0.24264826887284316
-0.0308388564735651 0.1240023598074913 -0.03520243242383003 0.7259712450690045 -0.13602819971600327 -0.6741380275692678
-0.11108698695898056 0.07346455752849579 0.08381009101867676 -0.06256673130665671 -0.7119627064811482 -0.6994244124375693
-0.029898567125201225 0.03858242556452751 -0.04921872913837433 0.6626086991083124 0.16579325587456992 -0.7303850410382864
-0.13829927146434784 0.0007874649600125849 0.06694965809583664 -0.800132434684149 0.27709936142886993 0.531981231682217
0.07258601486682892 -0.15925008058547974 -0.03744190186262131 0.34876186179293717 -0.2562400858005326 -0.9015021809112055
-0.0999566987156868 0.06024767830967903 0.08654911071062088 0.3567041649314288 0.6780539776867551 0.6426546055726525
-0.10714030265808105 0.2612763047218323 0.020061034709215164 -0.7481262319222209 0.5371679949377438 -0.3895608891103204
-0.10282529890537262 0.11597129702568054 -0.031198812648653984 -0.6929884483328019 -0.181656272765915 -0.6976876156576747
-0.015701105818152428 0.2031782865524292 -0.030797204002738 0.9599148445019546 0.17398762704112927 -0.21975394636134593
-0.006063175853341818 -0.1801726371049881 0.04356737062335014 0.18033810858815805 -0.9706128445272231 0.1593388610151914
-0.13057509064674377 0.1777433305978775 0.10534670948982239 0.5700663124231179 -0.8037566628170807 -0.17029276677961921
-0.017168132588267326 0.18217194080352783 0.03751816228032112 0.8606479968238867 0.21564891574011966 0.46128144413486016
0.09718862175941467 -0.42366692423820496 0.011323966085910797 -0.31452674376497597 -0.9481895663306329 0.04482715425194466
-0.08900841325521469 0.29038694500923157 -0.0025480601470917463 -0.8617259519035196 -0.041808457244272165 -0.5056485308184203
-0.1187240332365036 -0.2523864805698395 0.029175614938139915 0.4859516080628164 -0.20602718171234022 0.8493549523119491
-0.14214423298835754 -0.15581505000591278 0.05165829136967659 -0.8748176927258126 0.4683788539727356 -0.12375481261378356
-0.05105534940958023 0.18647947907447815 0.08120179921388626 0.4320280299462851 0.2889684115962927 0.8543120263933123
-0.12774688005447388 -0.17350271344184875 0.06380759924650192 -0.03233111609162939 -0.4916278349117391 0.8702050165749825
-0.010614837519824505 0.046123627573251724 -0.06457988172769547 0.9589265874331524 0.2322562335594277 -0.16283992718801266
0.09016499668359756 -0.15315277874469757 0.010579084046185017 0.8545151682742052 -0.26560862762518167 0.44638087338098903
-0.07173662632703781 0.14765013754367828 -0.054078370332717896 -0.1465797543876915 -0.2922289000363016 -0.9450484884847006
-0.18053558468818665 0.12907880544662476 0.10290901362895966 -0.37124913185467806 0.1362997219200852 -0.9184750774526522
-0.13953852653503418 0.06771363317966461 0.08889860659837723 0.855270901858536 0.4941651679252414 0.15592456908231195
-0.13003815710544586 -0.3668906092643738 -0.017586220055818558 0.9664089337817506 -0.0074120809060471875 -0.2569023817784922
-0.11307127773761749 -0.06028524413704872 -0.03014405071735382 -0.7892672702146133 -0.21025276637081564 -0.5769323620680261
-0.14180970191955566 -0.4087684154510498 0.02247673086822033 -0.7135238951502355 0.41678906933916926 0.563178943790537
-0.11239892244338989 -0.18879948556423187 0.059879370033741 -0.282774084922449 -0.7039492335896389 0.65153226583557
-0.0067864214070141315 0.018365098163485527 -0.011327614076435566 0.9898126738928115 0.14104266972203283 -0.01943800192521139
-0.08682001382112503 0.392093300819397 0.026417933404445648 -0.5284815105713858 0.6987797682310543 0.48209348522370676
-0.04942883551120758 0.12987609207630157 -0.13804012537002563 -0.9769330703306601 -0.14604725836307544 0.15579465465457643
-0.00887232180684805 0.03673671558499336 -0.008911212906241417 0.9786725009956614 0.19934503826311714 -0.049615436254994774
-0.06131916120648384 0.3540266752243042 -0.02844267152249813 0.12453641805973045 -0.12750305005230028 -0.9839886446520675
-0.0951373353600502 0.16805903613567352 -0.05355110019445419 -0.5064417221962217 -0.29243291641658326 -0.8111718507289417
-0.08577385544776917 0.20706982910633087 -0.07117985934019089 -0.5433535567726323 -0.14246064096716715 -0.8273281562462104
-0.06618230044841766 0.1782539188861847 0.0862998440861702 0.02347608033771895 0.10976428119861013 0.9936803692460315
-0.08053729683160782 0.22531622648239136 -0.07382902503013611 -0.6548811259196118 0.1690256470584001 -0.7365874296719642
-0.14162380993366241 -0.1884230077266693 0.06470415741205215 -0.3150865253973547 -0.7686034995795664 0.55674872424377
-0.052400168031454086 -0.1838863492012024 0.0124436654150486 0.06839776715539804 -0.9776332518226201 -0.19888431405941903
-0.002348695183172822 0.009830445051193237 -0.061344780027866364 0.3493011202863528 -0.4223775846616233 -0.836412519838215
-0.046836648136377335 0.3466184735298157 0.047225236892700195 0.13914753721882808 0.005686079144486191 0.9902553364612067
-0.09210652112960815 -0.1299760341644287 0.08447732031345367 0.12522933826245666 -0.09754699749176829 0.9873207159371711
-0.12337808310985565 0.19104067981243134 -0.011528551578521729 -0.9449194854662895 -0.048839693670903905 -0.3236384561640583
-0.02069917321205139 -0.11296773701906204 0.04761179909110069 0.3506029745894639 0.1973110903970652 0.9155030790856692
-0.017905939370393753 0.22102351486682892 -0.07544885575771332 0.9985439469113842 0.00046201260661737903 -0.053942308357969156
-0.13504435122013092 -0.013346810825169086 -0.007923503406345844 -0.8059537304660541 0.23832068843323045 -0.5418872888457176
-0.13388927280902863 0.1981581300497055 0.05832233279943466 -0.9328519193650412 -0.17838676936331543 0.31299434028921036
-0.02141934633255005 -0.05001832917332649 0.03431292250752449 0.6864727588380323 0.13034770494753894 0.7153772621409002
0.0007412820705212653 -0.18157625198364258 -0.016985353082418442 -0.1619362686456195 -0.9803699624435884 0.11247836074326006
0.04684912785887718 -0.0806073471903801 -0.018617775291204453 0.7942663117342191 0.5362921334821553 0.2855376920990964
0.02168145217001438 -0.3249179720878601 0.008285126648843288 -0.9399825552038632 0.2499253651193023 0.23231467405740833
0.033464059233665466 -0.24246327579021454 0.017231421545147896 -0.4568522924556088 0.1544324198508907 0.8760345943951374
-0.12076231092214584 0.09613968431949615 0.01006915420293808 -0.899887471991166 -0.12489163194733621 -0.41785717419099055
-0.13122397661209106 0.19204165041446686 0.12161971628665924 0.4703750212967189 -0.18496245906765194 0.8628651273957931
0.01838153973221779 -0.3569176197052002 0.023885054513812065 -0.636297810337475 0.34140419294425284 0.6917862918559591
-0.15941734611988068 0.13539128005504608 0.1301354318857193 0.8404100379199253 0.1988406746415831 0.5041560812600697
-0.005767323542386293 0.014486937783658504 -0.06005242094397545 0.0791265444431597 0.005892320099721495 -0.9968471650801477
-0.03300482779741287 0.035919323563575745 -0.05110400915145874 0.7919045931280877 0.04820098736475579 -0.6087395011001837
-0.06236310303211212 0.18188191950321198 -0.09719351679086685 -0.7528353019260411 -0.49117201327555265 0.43816556408367724
0.053674161434173584 -0.21387767791748047 -0.02826526202261448 0.266098851213411 0.1808179255687821 -0.9468348742921892
-0.09606021642684937 0.21813523769378662 -0.06381309032440186 -0.6597852025967338 0.11653848358120904 -0.742362625863519
-0.1423601657152176 0.012737873941659927 0.049635518342256546 -0.897195369250438 0.390771865075256 0.20576155826873066
-0.07180676609277725 -0.09251837432384491 0.08178385347127914 0.4146227940136915 -0.03174184746160105 0.9094396042640789
-0.018072260543704033 0.10929625481367111 -0.11421264708042145 0.792488753777287 0.32658245721171236 0.5150781239560488
0.04524838924407959 -0.21260026097297668 -0.03007858246564865 0.11549001649965282 0.17799677918794546 -0.9772303733959704
-0.14427697658538818 -0.026567164808511734 0.06764170527458191 -0.8316163239546012 0.07774521992266506 0.549881778668299
-0.0828012079000473 0.2481030821800232 0.08993426710367203 0.4484777364925717 0.669795163882134 0.5918126040484476
-0.023411817848682404 -0.13117259740829468 0.0529339574277401 0.3081011732992005 0.1872953038974433 0.9327347619498377
-0.02693510428071022 0.22232341766357422 0.007244391366839409 0.8455925525987636 0.472295148359152 0.2488182626454776
-0.05645398423075676 0.16160060465335846 -0.11297870427370071 -0.8305539271273192 -0.4715547589533867 0.2963381235038805
0.019525300711393356 -0.1826876550912857 -0.038433369249105453 0.14731751401864449 -0.8641722487650986 -0.48114849529811393
-0.02119799517095089 -0.15934918820858002 -0.0909866914153099 -0.10724372494958849 -0.21742969779790547 -0.9701665372370089
-0.0809144526720047 0.25755244493484497 0.06693419814109802 0.5051730600409842 0.801093891058016 0.32101208251147784
-0.1169402152299881 0.11430244892835617 -0.00013678606774192303 -0.9194831938220794 -0.10288514608545603 -0.37942759914603297
0.006499214097857475 -0.37329068779945374 0.014471407048404217 -0.9546690366487308 -0.05961540640626669 0.29163853274764656
0.025086035951972008 -0.1767209768295288 -0.06934704631567001 0.4660262978568913 -0.7821290931333933 -0.41363458677936504
-0.07547982782125473 -0.16129691898822784 -0.027079792693257332 -0.9716700870794388 -0.08048731284836202 0.22221393823404917
-0.03520963340997696 0.31085851788520813 -0.015022862702608109 0.21846917312842626 -0.4289396456411747 -0.8765169711932596
0.006366610527038574 -0.028523391112685204 -0.02463514916598797 0.8718464964460905 0.48900767538691864 0.027480539429918304
-0.01160283014178276 0.19956430792808533 -0.015977665781974792 0.9127375222425448 0.39783723172577434 -0.092928749821101
-0.07379524409770966 -0.05448928475379944 -0.059758398681879044 -0.280719271958948 -0.031953887806421555 -0.9592578586620455
-0.022910814732313156 0.21288222074508667 0.008859246969223022 0.8441600581110171 0.48156685080888656 0.2355571363640161
-0.03136223182082176 -0.17079278826713562 -0.06571371108293533 -0.0029150397090210185 -0.9004981448592487 -0.4348500818081405
-0.0715990886092186 0.32531824707984924 -0.018895547837018967 -0.1923780998255767 -0.34884101719267513 -0.9172244062558956
-0.08600267767906189 0.3976109027862549 -0.0015340998070314527 -0.3626959967282961 0.9176324873434162 -0.16248763685032488
-0.11194068193435669 0.05784197151660919 -0.003391907550394535 -0.8919166731540983 0.0010409760973230655 -0.4521985896909569
-0.08925532549619675 -0.1467227190732956 -0.021969011053442955 -0.22702211992052362 -0.2877480270745048 -0.9304096033368967
-0.03395950794219971 0.09794805943965912 -0.09898807108402252 -0.6702213169334037 0.3558505174110159 0.6512862623964721
-0.11668181419372559 -0.20015928149223328 0.03810993209481239 -0.18553533632154012 -0.42894513378594695 0.8840716663129801
0.0003301448014099151 -0.04966914281249046 0.01227099634706974 0.7538182170079984 0.28160359174095356 0.5936813226180158
-0.163938969373703 0.08909425884485245 0.0936790332198143 -0.5929118263529333 -0.5446247883794341 -0.5931605230066188
0.026751091703772545 -0.18832944333553314 0.0023233634419739246 -0.2210972108969873 -0.3176393296215969 0.9220744436384275
-0.09132330864667892 0.2033357322216034 -0.06680291891098022 -0.5787143513753444 -0.1082401229592408 -0.8083153934535596
-0.008607803843915462 0.17963601648807526 0.019185656681656837 0.9083636049398864 0.2100455924272203 0.3616025585121213
-0.03183279559016228 0.013637435622513294 -0.04163821041584015 0.8502914824816062 0.44933679989566033 -0.2740453157394955
-0.10849474370479584 -0.02245929464697838 -0.043619465082883835 -0.6809283213800145 0.06749067139391925 -0.7292335911197413
-0.1494651734828949 -0.3178226351737976 -0.025022340938448906 -0.29547830714518253 -0.05556967615128801 -0.9537319230785233
0.02989894151687622 -0.08242329955101013 -0.05562473088502884 0.43070229677794514 0.23262596025681895 -0.871998104450231
0.05695320665836334 -0.3212326169013977 0.00938353966921568 0.8468904019167701 0.046413240087051 0.5297381034868771
-0.05694197863340378 -0.1780870258808136 -0.011217710562050343 -0.5436909721247284 -0.8290315992218831 -0.13079271509405607
0.01895945891737938 -0.18385429680347443 0.0006365806329995394 -0.19457653553319895 -0.7031135650139039 0.6839380721332426
-0.07803615182638168 0.37177449464797974 -0.028805449604988098 -0.10974524979355038 0.3245216830426367 -0.9394901049946858
-0.0733170136809349 0.09002211689949036 0.07672689855098724 -0.002587040658437708 0.17966803178416133 0.9837238970236706
0.055837150663137436 -0.16573159396648407 0.022307712584733963 0.484510312739162 -0.6788549138484318 0.551729791467923
0.04546678438782692 -0.3215782940387726 -0.016497919335961342 0.10573103457140293 -0.4099448867281854 -0.9059614440879237
-0.051055751740932465 0.0668056532740593 -0.046569205820560455 0.04524271128709264 0.21552744519075054 -0.9754491362674637
-0.020803172141313553 0.07168611139059067 -0.08138268440961838 0.31323797832974865 0.8807042778722274 0.3553054233605934
-0.09179329127073288 0.13513226807117462 0.07422541081905365 -0.20416398147097167 -0.0916117426628944 0.9746406298098743
-0.028318554162979126 0.20127329230308533 -0.07061915099620819 0.7207967327245456 -0.6617849379372256 0.20613773553874756
-0.04764654114842415 0.2655073404312134 -0.012601019814610481 0.7739646355454157 0.5819961909021494 -0.2495178885379582
0.0610991045832634 -0.28505927324295044 0.007357504218816757 0.7658301629017418 -0.13912387388279135 0.6278126386954448
-0.04038174822926521 -0.17932012677192688 0.05859338864684105 0.41004043815231983 -0.5507530724474229 0.7270061157030094
-0.11338990181684494 -0.41327786445617676 0.04922887310385704 -0.06760075372758763 -0.9003125851914816 -0.4299620762826571
-0.11433234810829163 0.14657960832118988 -0.01807495392858982 -0.8896462636737946 -0.21761433691214038 -0.40146422742449484
-0.15158574283123016 -0.05772973224520683 0.052817024290561676 -0.9286888652685126 -0.1376940262940347 0.3443506158687976
0.06617309153079987 -0.27221715450286865 0.002339971251785755 0.8642353313961467 -0.1462764347937861 0.48135277769076157
-0.034705985337495804 0.3671456277370453 -0.019329102709889412 0.44786904420254375 0.15018441875154015 -0.8813954615320878
-0.016848327592015266 7.096892659319565e-05 0.028606394305825233 0.8360962623621883 -0.027802865189647107 0.54787776077445
-0.04149157553911209 0.12612183392047882 0.059427592903375626 0.6995873088415434 -0.08981147261150424 0.7088804530350659
-0.02934158593416214 0.2219974845647812 0.013040468096733093 0.8122471993463753 0.4823967467373812 0.32794491289111427
0.01450276281684637 -0.17947562038898468 -0.07146439701318741 0.061013954321513304 -0.9490249779567602 -0.30923920933837457
-0.04996476694941521 0.05113079771399498 -0.051087990403175354 -0.10644429772807013 0.21737025869415308 -0.9702678919331584
-0.01779717393219471 0.22253639996051788 -0.07625089585781097 0.9915259663669197 0.0628487797791819 -0.11369383844524758
-0.12515845894813538 -0.011573219671845436 -0.02010258659720421 -0.7894938740802102 0.1959217839846119 -0.5816477261625873
-0.14158311486244202 -0.2585015296936035 -0.02168211154639721 -0.18207483145795547 0.31430096663840196 -0.9316993389069906
-0.12191754579544067 -0.41742652654647827 0.05798477679491043 0.1936696739236659 -0.9104930500276844 -0.3653689412820766
-0.1465071141719818 0.17741625010967255 0.09606357663869858 0.015391197252158121 -0.6379178696557067 -0.769950584531936
-0.11124926060438156 0.34411534667015076 0.008202138356864452 -0.9206041172813093 -0.35364208987811185 0.16560595252388424
0.03669377788901329 -0.17226943373680115 -0.05345933884382248 0.6421512014533197 -0.7220622666906102 -0.2574255571882403
-0.10591662675142288 0.043511707335710526 -0.013707022182643414 -0.8136527326705321 0.26321374918924084 -0.518350993879166
-0.02581106126308441 0.3169170916080475 0.040557295083999634 0.42068606298088107 -0.26865193239794966 0.8665156522720716
-0.0007631672197021544 -0.1862529069185257 -0.008201254531741142 -0.18407599912965714 -0.9343818594234677 0.30503535422105
-0.0019613674376159906 -0.03715483099222183 -0.0542968288064003 0.47501927505024655 0.2626053445084021 -0.8398780395785816
-0.07678564637899399 0.06784224510192871 -0.041395582258701324 -0.39188888993339566 0.10894201389453888 -0.9135396737719567
-0.09807296842336655 0.11500243097543716 0.06970550864934921 -0.38384409224357724 -0.1083182160746561 0.9170228333668188
-0.05718843266367912 0.3683823347091675 0.05132250115275383 -0.015327526074776238 0.042286630991309346 0.9989879417609765
-0.1302213966846466 0.23119007050991058 0.05415312200784683 -0.9354285027536213 0.3486825771459733 0.05825784608926812
-0.05068697780370712 0.27992168068885803 0.02744123339653015 0.6789411834561521 -0.3087754601980755 0.6661055356222665
-0.05623067915439606 0.27045711874961853 -0.028222404420375824 0.555200898442626 0.7367578493600123 -0.38592723896469183
-0.13673819601535797 -0.10194770991802216 0.03813609853386879 -0.9405101068483274 -0.3352374687189581 0.05528633179234662
0.06567616760730743 -0.13229070603847504 -0.046085175126791 0.5537375802155573 -0.021950765178298838 -0.8324018597799422
-0.12064659595489502 0.2519972026348114 0.05832144245505333 -0.8400729287083555 0.5410780746357868 0.03888433617533172
-0.010506502352654934 0.34706512093544006 0.011825257912278175 0.9561527353154947 0.28727800413552734 -0.05694993493065348
0.03670743480324745 -0.18496601283550262 0.005438388790935278 -0.00898394378716448 -0.4463978719220515 0.8947894884817841
0.0444953478872776 -0.22235356271266937 -0.03169633448123932 0.03545443841866234 0.16573527865119858 -0.985532749433943
-0.04433498531579971 -0.028266167268157005 0.05871707201004028 0.765113484994591 -0.04942374323712116 0.6419958322947765
-0.049490757286548615 -0.0380193255841732 -0.06737078726291656 -0.13163813327460905 -0.05493058657141457 -0.9897747382747737
0.06760682165622711 -0.11849556118249893 0.0005016973009333014 0.6138348115753427 0.5822263219478812 0.5331222506417321
-0.15347228944301605 -0.06928212940692902 0.030000358819961548 -0.9746375621607956 -0.13287551318988503 -0.18007143143704502
-0.12625128030776978 -0.08486823737621307 -0.01014101691544056 -0.672884283984826 -0.13249134816254848 -0.7277862206914186
-0.01990208774805069 0.0783366858959198 -0.015119105577468872 0.9255055382331975 0.11776245193929108 -0.3599604195087645
-0.07497236132621765 -0.1737322211265564 -0.03339831903576851 -0.8958052245876041 -0.4422622981728911 -0.04401203490392922
-0.16040824353694916 -0.39621224999427795 -0.03199617937207222 -0.8036680326449739 0.3060225749403184 -0.5103605362206746
-0.141517773270607 -0.06177329272031784 0.0724557563662529 -0.7991824791232928 -0.08083851483648663 0.5956278196838851
-0.04191600903868675 0.3707527220249176 -0.023390306159853935 0.37657109729615357 0.17906966578717545 -0.9089159826276795
-0.0029219896532595158 -0.17287130653858185 -0.07805941998958588 -0.020301965262765325 -0.8334259567807991 -0.55225809615657
-0.09375302493572235 0.32504802942276 0.0284006018191576 -0.8029479371359882 -0.3494272939632282 0.4828821558958219
-0.12740840017795563 0.0423760861158371 0.031106773763895035 -0.9539287858027511 0.29654947015210215 0.04558819331139127
-0.07044514268636703 -0.1922679990530014 0.06591708213090897 0.2514062868008242 -0.8362931899179432 0.4872459127113257
-0.01827712543308735 0.16114263236522675 -0.03997957333922386 0.6496516286808591 -0.2740760046660291 -0.7091086694002646
-0.12670084834098816 0.02457159012556076 0.0050481208600103855 -0.8106511660464443 0.3990821731009982 -0.42846015695805995
-0.08007385581731796 -0.1594061404466629 -0.02846859022974968 -0.9279031409607786 -0.2320712382345736 0.2917853686862886
-0.01309536024928093 0.06505978107452393 -0.0937807708978653 0.9683516047115462 -0.1913064295934573 -0.16030289968923514
-0.007337514776736498 0.1884882152080536 -0.022927651181817055 0.912164483609109 0.3009416455127872 -0.278190727448245
-0.028063543140888214 0.09279222786426544 -0.09433647990226746 0.12663325220741237 0.3260113569670642 0.9368460997217566
-0.05132365971803665 0.16951638460159302 -0.1435602307319641 -0.5776384655896203 0.3914360115854618 -0.7163181219998105
-0.14169970154762268 -0.08237975835800171 0.06659436970949173 -0.840553608172212 -0.12129294830469428 0.5279750491076547
-0.1577051877975464 -0.38027241826057434 -0.013723005540668964 -0.9767521716696533 0.017285494727188027 0.21367359876843117
-0.04432407021522522 0.09354792535305023 -0.11137627065181732 -0.9091311276075611 0.11496396932463039 0.4003297123273892
-0.11525235325098038 0.17522095143795013 -0.026270989328622818 -0.8952377019289701 -0.17452265363719766 -0.40998939060952205
-0.1129126250743866 0.35515615344047546 0.00818636268377304 -0.9852385526894109 -0.11622588529467869 0.12568427857907846
-0.10391975939273834 0.038787029683589935 -0.023057010024785995 -0.7855255595580998 0.2987456393686128 -0.541941545038921
-0.14630018174648285 -0.055291686207056046 0.009057710878551006 -0.866853850624165 -0.08312696732847427 -0.4915834710004281
-0.02226666547358036 -0.000634699419606477 0.03557710722088814 0.8027446100909442 -0.029009997569293292 0.5956169163237119
-0.13131585717201233 0.22847390174865723 0.1026233434677124 -0.5938007098437993 0.7184354425187818 0.36228611886441703
-0.042420919984579086 0.12924399971961975 -0.16266204416751862 -0.357840744089817 -0.2825920320894129 -0.8899953624984922
-0.14112870395183563 -0.12442808598279953 0.05821659788489342 -0.9993361938360977 0.033359816354014964 0.014638795784074335
-0.14612817764282227 -0.0074750869534909725 0.013219019398093224 -0.8487641798992346 0.3450122405773283 -0.40070677654837744
-0.1253139227628708 0.04192792996764183 0.05509289726614952 -0.9059726406535641 0.28272798880627575 0.31508484370525736
-0.06600558012723923 0.18586128950119019 -0.10615938156843185 -0.9812258717581479 -0.06526330833121773 -0.18148412927340796
-0.09751400351524353 0.27294042706489563 0.009756647981703281 -0.9165068847878108 0.3479273688515993 -0.197387122529676
0.04212449491024017 -0.26620933413505554 -0.032870955765247345 -0.09180529405406748 -0.3048470191088322 -0.9479662878626568
-0.12362499535083771 -0.19678011536598206 0.04165143892168999 -0.29263745456426454 -0.49991345212109756 0.8151379395994981
-0.08813001960515976 -0.11414017528295517 -0.05066704377532005 -0.7664250700703051 -0.10199342228510024 -0.634184479294709
-0.01608579233288765 -0.1076594889163971 0.04461295157670975 0.3984025332289527 0.2135650663223157 0.8920007757639554
-0.025526640936732292 0.19836342334747314 -0.04587874561548233 0.8549047138095492 -0.3080822753465624 -0.41740057729176394
-0.1056259423494339 -0.10559974610805511 0.08597570657730103 -0.03879076213819668 -0.007883009522558552 0.9992162603428775
-0.12624506652355194 0.11937085539102554 0.02618034929037094 -0.9783515615652205 -0.1374880542912213 0.15467791345279014
-0.09640572965145111 0.18511897325515747 -0.05874447897076607 -0.4932504303367571 -0.25306241600197865 -0.8322640365772423
-0.10051807761192322 -0.03586423769593239 0.09112881869077682 -0.09232838952915402 0.01142819740875716 0.9956630277312397
0.03148726746439934 -0.32879796624183655 0.0199822336435318 -0.4474574012664652 0.2126482119790074 0.8686556348714908
-0.12392808496952057 0.0991293415427208 0.01879028044641018 -0.9804922472882902 -0.1281082059804497 -0.14907461409652947
-0.11917001008987427 -0.2254776805639267 -0.008738655596971512 0.21987373348125622 0.28466437399245975 -0.9330711309993973
-0.06291499733924866 -0.10052961856126785 0.0762341246008873 0.548607812244264 -0.030657026237367692 0.8355175731765573
-0.1546218991279602 0.08234041184186935 0.10047674924135208 -0.30212568077859103 -0.8782877119927833 0.37058166168410817
-0.11113831400871277 -0.08637848496437073 -0.019623029977083206 -0.7408335368453687 -0.1664560313404537 -0.6507365521588346
0.06071097031235695 -0.1745755672454834 -0.029475698247551918 0.2747870725047919 -0.6881794220779621 -0.6714917332422555
0.044276610016822815 -0.3804170787334442 0.02978939190506935 0.1409890127730146 -0.07255202161687657 0.9873491289491246
-0.09831453859806061 -0.18157516419887543 0.0021952223032712936 -0.10109784984806447 -0.5932135245353749 -0.7986719846497788
-0.025682851672172546 0.08067357540130615 0.04471319541335106 0.8618269143750704 0.10363986800351932 0.49650090374435196
-0.053340714424848557 0.1099749207496643 -0.045716963708400726 0.19768801310119125 -0.17949794064224753 -0.9636907900261865
-0.13430123031139374 -0.09367372840642929 0.07802067697048187 -0.6972640766967941 0.0009967520024371929 0.7168136534927421
0.018543755635619164 -0.367639422416687 0.0003786074521485716 -0.5940705789807429 0.18497426978543025 -0.7828567344711495
-0.07742758840322495 -0.1585792452096939 -0.05228796228766441 -0.891640082620016 -0.2968539086063143 -0.3418416592671601
-0.13429248332977295 0.2208499163389206 0.042470782995224 -0.9585453640844734 0.27999623626070924 0.05284782561280474
0.07244064658880234 -0.15437260270118713 0.02672676555812359 0.6575725401097646 -0.2648795381823094 0.7052922690246353
-0.12616810202598572 -0.28321871161460876 -0.02423412911593914 0.36901522590744973 0.05424330789893858 -0.9278391167635986
-0.11698160320520401 0.2149457484483719 -0.0371723435819149 -0.9004330238282762 0.1911707949870003 -0.39073532825111373
-0.016960913315415382 0.13561776280403137 -0.009500418789684772 0.9530427798012209 -0.2420146136380414 -0.18203951948516897
0.02071228437125683 -0.24074161052703857 0.0007976536871865392 -0.8821557103098251 0.19015999538459366 0.4308601616802131
-0.03546588122844696 0.060573771595954895 -0.0740446075797081 -0.36933559928728815 0.7211600151758084 0.5861053212612282
-0.11975889652967453 -0.10363424569368362 -0.012907641939818859 -0.609890895610153 -0.10711911305261808 -0.7852124496406472
-0.011953194625675678 0.14794482290744781 -0.008023086003959179 0.9025438542755542 -0.422691443977287 -0.08213728932600226
-0.10451686382293701 0.130895733833313 0.06963656097650528 -0.5953928558473665 -0.13607254706503225 0.7918280174009706
-0.08553734421730042 0.11994250863790512 -0.04441908746957779 -0.41147278976615986 -0.2599293535160163 -0.8735713333568127
0.010116503573954105 -0.18227645754814148 0.001660905429162085 -0.2024861298577791 -0.912293109972208 0.355978438549943
0.016534654423594475 -0.3928479552268982 0.012360059656202793 -0.6283752381796821 -0.7778738741929214 0.00753630484540839
-0.0791490450501442 -0.19171957671642303 0.0604972243309021 0.057936924979996175 -0.9981225354361278 0.01986748545785557
-0.11420353502035141 -0.2725864350795746 -0.0010588866425678134 0.9689006839550884 -0.23642171822778654 -0.07304954333589522
0.05843380466103554 -0.3402329087257385 0.004927367903292179 0.9499472352750647 -0.21107194105874055 -0.2303234375632587
0.04792872443795204 -0.1085137277841568 0.009315375238656998 0.4702171126800334 0.5640637818931359 0.6787694136444758
-0.01652585156261921 0.12660181522369385 -0.004268288146704435 0.9797556055010066 -0.09975661738872922 -0.17357295519900187
-0.04553861543536186 0.10462804138660431 -0.12481432408094406 -0.998806540270644 -0.047892457716680395 -0.00958162859030025
0.0014008823782205582 -0.08080838620662689 0.02773911878466606 0.578921160898454 0.31595395831804446 0.7516803746853751
-0.15403220057487488 -0.2780810594558716 0.02416776679456234 -0.7523523831243762 -0.04389251151291601 0.6572969945467272
-0.14883099496364594 -0.01919185183942318 0.059056710451841354 -0.8806747474220356 0.15776795946887717 0.446678027462915
-0.0619673877954483 0.05898993834853172 0.08045997470617294 0.39546808961847213 0.08997350900832925 0.9140622286093242
-0.0190949197858572 0.07858827710151672 -0.11811530590057373 0.6185738961755097 -0.5962681272871204 -0.5116939078704769
-0.06524632126092911 0.22101058065891266 -0.09019460529088974 -0.6437990804724627 0.21928414207877664 -0.733101090584093
0.005095373373478651 -0.07968345284461975 0.024100732058286667 0.6123223268065039 0.3267787210293276 0.7199146029750376
-0.10794226825237274 -0.15401199460029602 0.07918296754360199 -0.10786863388557452 -0.3271222768704522 0.9388052906746698
-0.1035529375076294 0.2405792772769928 -0.042843375355005264 -0.77153096767959 0.4558115603513761 -0.4438195436902697
-0.02374512143433094 0.20304834842681885 -0.04887246713042259 0.8280186777497511 -0.40323915069749955 -0.3895937071390054
-0.03567088767886162 0.22709478437900543 -0.10079848021268845 0.31046246090505664 0.5838913462190194 -0.7501226274278876
-0.1450132131576538 -0.16759367287158966 0.04721996933221817 -0.6416671972280016 0.19675210494547346 -0.7413176223462425
-0.13281460106372833 -0.0844615250825882 -0.002473569242283702 -0.7655509571913376 -0.17325220016151238 -0.6196090760169851
-0.10419467091560364 -0.0305373165756464 0.09091772884130478 -0.11364489809554221 0.020523256530188085 0.993309434707156
-0.09197911620140076 0.028867293149232864 -0.04289156198501587 -0.5022793013434435 0.3424367772004044 -0.7940104262933471
-0.1134229302406311 -0.4175989627838135 -0.0023048243019729853 0.9704193379214665 -0.08976802637676418 -0.22411606374484447
-0.10406947880983353 0.13588516414165497 -0.031765442341566086 -0.7420081985818602 -0.1715897764968554 -0.6480592425381049
-0.10365553200244904 -0.24005137383937836 0.010369878262281418 0.9062920127400218 -0.40330272959494945 -0.12641873257117917
-0.03407295420765877 -0.052406974136829376 0.04749910533428192 0.7225571991784508 0.07890344719772854 0.6867935205982274
0.08406504988670349 -0.40505677461624146 0.01695467159152031 -0.6015638684035284 -0.5035888943049399 -0.6200960713987071
-0.0903850570321083 0.3260878622531891 0.032633740454912186 -0.6048529220644242 -0.32993561922571296 0.7247726745927118
-0.08000346273183823 0.10733238607645035 0.07348166406154633 -0.08537323726238688 0.07279876004482315 0.9936859417820485
-0.13750632107257843 0.19272750616073608 0.085617795586586 -0.21949127277168023 -0.4629306388526276 -0.8587891503672865
-0.037279047071933746 0.24151024222373962 0.0026216174010187387 0.8450737827086697 0.49107804752080647 0.21140636939698082
-0.09429813921451569 -0.21651442348957062 0.0347483791410923 0.4436109565022477 -0.44598035209262127 0.7773743273471942
-0.1168382540345192 -0.27785196900367737 0.013386979699134827 0.9492649794759607 -0.2037644602629426 0.2395329694932533
-0.12101123481988907 0.1362815648317337 0.005028296262025833 -0.9220848973714146 -0.07789433051709321 -0.3790671646461109
-0.11230087280273438 0.34730643033981323 0.006162014789879322 -0.9664928648344399 -0.25398143406371465 0.037215230417887976
0.03155987337231636 -0.35721707344055176 -0.0039482819847762585 -0.23177632448686197 -0.039374614201669184 -0.9719719003982732
0.03945248946547508 -0.27767881751060486 0.021571572870016098 -0.053314489171063614 -0.11936585582117958 0.9914178522240287
0.022226111963391304 -0.2940411865711212 -0.0007587657892145216 -0.9971395938535985 0.01719010846159775 0.07360115855446274
-0.1613067388534546 -0.4154309630393982 -0.017077522352337837 -0.8219264920313055 -0.518965716183561 0.234758231215001
-0.025915633887052536 0.05279022455215454 0.04690185561776161 0.8273612305289529 0.03224630844995748 0.5607437648418101
0.040027350187301636 -0.08550842106342316 -0.004844088573008776 0.6536253662184337 0.5224670577275677 0.5475418287449069
-0.15422503650188446 -0.015366251580417156 0.026609079912304878 -0.9536899167588164 0.22603412345412172 -0.19845432146186426
0.03772665932774544 -0.18418587744235992 -0.031831953674554825 0.3850685801712811 -0.6094377230706536 -0.6930424592067437
-0.12195155024528503 0.05844901129603386 0.01997145265340805 -0.9755273472165362 0.09987850308805604 -0.19588435224273745
-0.08040368556976318 -0.026601342484354973 0.08829467743635178 0.30960132344865193 0.00014466255806416808 0.9508664467692545
-0.12367028743028641 0.0430150106549263 0.058860186487436295 -0.8635875306957941 0.3324124226920743 0.3791023055412965
-0.09906601160764694 0.2758987247943878 0.03519279509782791 -0.6720975417642887 0.7376957421221608 0.06395221973657192
-0.1343679279088974 -0.21882735192775726 -0.006627804134041071 -0.4130670028406431 0.46022793675483054 -0.7858536106646326
0.07001416385173798 -0.1179070994257927 -0.0032116095535457134 0.6796046880970313 0.6142182274150583 0.4010903103138256
-0.009958310052752495 0.1619074046611786 0.017561422660946846 0.9106467616911902 -0.3178950082596463 0.26394173437512314
0.030491536483168602 -0.11099597066640854 -0.057869914919137955 0.3215885190723191 0.10229371251292507 -0.9413377825101868
0.047164637595415115 -0.10689376294612885 0.00847011711448431 0.4535264314870084 0.5616525272731648 0.6919972648430965
-0.08752401173114777 -0.2159576714038849 0.02263340912759304 0.8002889786299825 -0.5881320364634011 0.11678295410200984
-0.028680406510829926 -0.19486790895462036 -0.02606338821351528 0.41609097006671514 -0.8895215454911529 0.18873188584860526
-0.028930995613336563 0.09035757184028625 -0.13578595221042633 0.2967244375320231 -0.6464572893098315 -0.7028851835609351
0.0816948413848877 -0.1327468752861023 -0.0015414201188832521 0.8414663494677432 0.5176844145948296 0.1547166106112673
0.05094747245311737 -0.21269746124744415 -0.02882806770503521 0.20814965635877994 0.162525809886434 -0.964499394338058
-0.1209210529923439 0.16337083280086517 0.061558376997709274 -0.712089714344398 -0.17662911435138146 0.6795074647775108
-0.10985242575407028 0.2271939367055893 -0.04159785062074661 -0.8421333201621612 0.334998939423966 -0.422595766255973
0.03381354734301567 -0.361459881067276 -0.0045717875473201275 -0.233870452852032 -0.0343509915413046 -0.9716607538966029
-0.0192805714905262 0.08746005594730377 0.027330389246344566 0.9628858436744361 0.036375789564462524 0.26744654416337416
-0.0781802386045456 -0.15541821718215942 -0.054147057235240936 -0.8873970366692415 -0.25775260857787363 -0.38221733618708387
-0.06385261565446854 0.17296281456947327 -0.1150081679224968 -0.9745867781025346 -0.2027079567783533 -0.09534199602728322
-0.13775505125522614 0.21216465532779694 0.028762681409716606 -0.9804229227122814 0.1236381258672865 -0.15324655445501262
-0.05528269708156586 0.24244177341461182 0.04469951242208481 0.7750886072125087 0.3842925219472995 0.5015544920990718
-0.14155127108097076 -0.05280613526701927 0.002909621922299266 -0.7965835212350237 -0.09759864432316107 -0.5965980207167063
-0.05487537756562233 0.16790348291397095 -0.1412568837404251 -0.7274388027999316 0.2699586364018649 -0.6308368432590538
-0.029275787994265556 0.12661346793174744 -0.1162482425570488 0.4808187670238122 0.328226516560125 0.8130686730556694
-0.16305424273014069 0.1987575888633728 0.12931807339191437 -0.055523040823220425 0.7146316148485661 0.6972939459056517
-0.03657831996679306 0.24833405017852783 -0.021053696051239967 0.8241063403725437 0.5334954557948525 0.19034531358564125
0.019433220848441124 -0.39274314045906067 0.015178385190665722 -0.539702921707696 -0.8163508170604125 0.20565043103522465
-0.1462247371673584 0.16695156693458557 0.11781325191259384 0.4845647952379832 -0.8715131559148199 0.07524478907779643
-0.1542234867811203 -0.290123850107193 0.02152957208454609 -0.6648645398528487 -0.18132546443357309 0.7246214319175284
0.01374215167015791 -0.36413508653640747 0.02419477142393589 -0.8115066876733038 0.07204054149753626 0.5798853819870311
-0.14818018674850464 -0.31753674149513245 0.017733095213770866 -0.5230168174645929 -0.2058299924403338 0.8270957761113407
-0.1482098549604416 -0.003807133762165904 0.04899073392152786 -0.9234305812684489 0.28139338672158376 0.2609477409129501
-0.156995490193367 -0.3858450651168823 -0.010503659024834633 -0.9196736688996239 0.05470831980345369 0.3888538831964884
-0.11089028418064117 -0.22044889628887177 -0.0057967659085989 0.4222202198936734 0.171374244927886 -0.890146591347928
0.022374913096427917 -0.18021881580352783 -0.05267716571688652 0.3008358910774871 -0.9455056772114239 -0.12456637186889985
-0.12780757248401642 -0.12480274587869644 0.08324666321277618 -0.32694843714960103 -0.05922302326011919 0.9431846865600422
0.07765799760818481 -0.1727614849805832 -0.024698104709386826 0.35011632982765506 -0.8085174498463111 -0.4729884659080288
-0.02324753627181053 0.3635444641113281 -0.013175297528505325 0.590743448580753 0.060824867253300864 -0.8045635546571432
-0.09457977861166 0.31234681606292725 0.004050847142934799 -0.9389969058151681 -0.25280807735378813 -0.23317994530881386
-0.028466781601309776 0.1226663812994957 0.04381447657942772 0.8485722932908752 0.0013067384641743931 0.5290778350050691
-0.010765247978270054 0.15106992423534393 -0.0005427463911473751 0.9315742073921117 -0.35217667783678186 0.09022795414729587
-0.10546427220106125 -0.021301476284861565 0.0898144543170929 -0.1401866666275201 0.05793025851643017 0.9884289471925052
-0.07797661423683167 0.3898525834083557 -0.02099017985165119 -0.17609488946317853 0.6078943696589146 -0.7742448096319031
-0.022595632821321487 0.035517290234565735 -0.041890181601047516 0.5450620300426525 0.18788026026846674 -0.8170730635672895
-0.004243344534188509 0.3273574113845825 0.00999169796705246 0.9634977923058464 -0.11510756759538616 -0.24170695501791783
-0.09623009711503983 0.05590837821364403 0.08694862574338913 0.8498529207741551 0.44249275268776633 0.2862694130892101
-0.08382024616003036 -0.04891818016767502 0.08929915726184845 0.21036202631411322 -0.051678488061759335 0.9762567038216285
-0.01881733350455761 0.044253159314394 -0.034210603684186935 0.7606974814904964 0.3956274477122309 -0.5146049594307482
0.033776625990867615 -0.213084414601326 -0.029946789145469666 -0.24387398320292178 0.010582231657546072 -0.9697491926729752
-0.04630574584007263 0.11816567182540894 -0.14040234684944153 -0.9511151193296459 -0.28191634796118165 -0.12610790036624767
-0.13282746076583862 0.20667992532253265 0.12120547145605087 0.2105977721552518 0.32484568491752114 0.9220216154482016
-0.12173321843147278 0.10717447847127914 0.03749632090330124 -0.9503780683349106 -0.09391116862754613 0.29658425385548176
-0.05370471999049187 0.3178694248199463 -0.01624346151947975 0.1257483629382903 -0.2904899815969436 -0.9485794219832873
-0.03326903283596039 -0.19904875755310059 -0.05103325471282005 0.3060624301483173 -0.7210605037179644 -0.6216088310422414
-0.03885314613580704 0.08038648217916489 -0.09301026910543442 -0.7315972753446487 0.39718330924279527 0.5540855940802183
-0.12889692187309265 -0.021446717903017998 0.08194144815206528 -0.5095462894140277 0.10872523752363278 0.8535463676156237
-0.12583741545677185 -0.297995388507843 0.02144470438361168 0.6994598098678786 -0.3043826107645814 0.6466120944149812
-0.11525795608758926 0.13042764365673065 -0.008969702757894993 -0.929204887164322 -0.0977260997207531 -0.3564097180259103
-0.08152177929878235 -0.14756685495376587 -0.05359547585248947 -0.8722852305044395 -0.18997179818649967 -0.4505876080604134
0.10197149217128754 -0.42797401547431946 -0.01060371845960617 -0.22629789147157395 -0.9740226240212295 0.00831818551839551
-0.071341373026371 -0.18318960070610046 0.004004405811429024 0.22887479699921598 -0.8982009269943813 -0.37530177463609454
-0.020954644307494164 -0.15848033130168915 0.05453719198703766 0.1819266438852766 0.045113169093867936 0.9822766912733643
-0.039986953139305115 0.07961463928222656 -0.09555044770240784 -0.92435561822902 0.1751156352179814 0.3389708030946755
-0.02873164415359497 0.3229373097419739 0.04325341805815697 0.2928290481300212 -0.12335758363543232 0.9481740637303328
-0.06624990701675415 0.3932425379753113 0.039640285074710846 -0.270560267824325 0.5969518761116871 0.7552784910756869
-0.034004051238298416 0.2373470515012741 -0.0027669910341501236 0.8519172909560064 0.4912040606681714 0.18153649812993114
-0.07274903357028961 0.13958622515201569 -0.05229286104440689 -0.15185221810922903 -0.3224097937256944 -0.9343408525613457
-0.02699168585240841 0.2502477765083313 -0.07261932641267776 0.6473968972512724 0.7330463591029481 -0.2086151788229638
0.06781741231679916 -0.27957746386528015 -0.0027099410071969032 0.9690244584690124 -0.16951683127975156 0.1795985601326176
-0.024990051984786987 0.027071643620729446 -0.04800492897629738 0.37233933833727206 0.41942063953728664 -0.8279189237218195
-0.1214066669344902 -0.3164576590061188 -0.005993381142616272 0.9764601564498279 -0.21196601672292914 -0.039949601006679984
-0.05510881915688515 0.07344675064086914 0.0750134214758873 0.46286869975186956 0.12121703605465127 0.8780996509281501
-0.15786269307136536 0.16176959872245789 0.10741609334945679 0.19069782305094726 -0.6273182539127454 -0.7550537388765741
-0.09985721111297607 0.27428311109542847 0.03909704461693764 -0.6861905428020604 0.7163753065724037 0.126289188382492
0.019216036424040794 -0.24888670444488525 -0.008767146617174149 -0.9977017170524791 -0.015549255832142278 -0.06595077280518892
-0.06461463868618011 -0.04370008409023285 -0.06255137920379639 -0.2512825000475408 -0.05021838554724459 -0.9666101690562158
-0.009957936592400074 -0.05713486671447754 -0.06098213046789169 0.2171479862642172 0.22874798631840262 -0.9489579078213487
-0.06382452696561813 0.17814403772354126 -0.10534195601940155 -0.9414134108799745 -0.32369510295755427 0.09466926711784826
-0.12184470891952515 -0.42293673753738403 0.04383010044693947 0.23505787379820325 -0.9394824256634002 0.24923998041061043
0.03574059531092644 -0.086748868227005 -0.05415036529302597 0.40924668121015306 0.2779541710404375 -0.8690561735122181
-0.11862750351428986 -0.2036706507205963 -0.001289697247557342 -0.06999060283214838 0.47622163944191226 -0.8765353761500159
-0.1419595628976822 -0.27973535656929016 0.029858330264687538 -0.04332276912488978 -0.2475198238101797 0.967913774308605
-0.12308909744024277 0.20872794091701508 -0.013349388726055622 -0.9666251985995374 0.053960289964206036 -0.2504476243436613
-0.11572536081075668 0.04876237362623215 0.007507746107876301 -0.8876690801302121 0.09585771645097015 -0.4503941633476044
-0.15873700380325317 -0.3230230212211609 0.006146975792944431 -0.710147761688095 -0.20234647615732973 0.6743486191548848
-0.11544725298881531 0.10460380464792252 0.00047676413669250906 -0.9089970758651326 -0.11603564305903454 -0.4003249250402913
-0.07423245906829834 0.16424256563186646 -0.05890045315027237 -0.17733473553025497 -0.21685768137889694 -0.9599610083755399
0.017193004488945007 -0.044420026242733 -0.020923525094985962 0.7621847154811966 0.6045524782566392 0.23149678295951137
-0.10003884136676788 -0.06328567117452621 -0.045924894511699677 -0.6963167209279247 -0.19700083722567224 -0.690169322911825
-0.02119581215083599 0.010623625479638577 -0.054230425506830215 0.17197617922691907 0.03941104478732022 -0.9843124317650787
-0.1158413290977478 0.1850282847881317 0.07068010419607162 -0.6652228822340847 -0.5031343088564556 0.5516651014915787
-0.15142890810966492 0.2117333859205246 0.09641246497631073 -0.6163132888063575 0.6682485779008357 -0.41665545499153406
0.05849304050207138 -0.09638789296150208 -0.038906823843717575 0.6932056522860509 0.4667977607630562 -0.5491500470593326
-0.122929148375988 0.21021877229213715 -0.014027126133441925 -0.9609145788184944 0.12050010292211696 -0.24924465372367502
-0.12199865281581879 0.21164308488368988 -0.01921379566192627 -0.9664132779694109 0.14283005639540025 -0.21364679064873604
-0.09386491775512695 -0.22045104205608368 0.011306023225188255 0.8167830520660531 -0.3781227437905369 -0.4357621329188429
-0.14171959459781647 0.01856660284101963 0.03906772658228874 -0.9001951187826298 0.4353993896076752 -0.00872465754004078
0.007101832423359156 -0.08072090893983841 0.02272905223071575 0.6261118511746059 0.3215247205302512 0.7103561106280792
-0.11771024763584137 -0.09700751304626465 -0.015016784891486168 -0.6045125544760874 -0.17945313894516002 -0.7761192836178756
-0.04344381019473076 0.176661416888237 -0.08620216697454453 0.154522353375166 -0.6789030287555956 0.7177837556352744
0.02122487872838974 -0.1029595136642456 -0.06003823131322861 0.4158486094485855 0.1263157890330028 -0.9006188180693583
-0.10830394923686981 -0.17188234627246857 0.06977465003728867 -0.23019579815540595 -0.4251762460855315 0.8753485330291079
-0.0366455540060997 0.2509475350379944 -0.032990578562021255 0.7576786050079277 0.5871879300423464 0.2848393693396774
-0.056877728551626205 -0.19158780574798584 0.05990374833345413 0.2443331800394685 -0.7763172866283852 0.5810617588636706
-0.154661625623703 -0.04884135350584984 0.046222563832998276 -0.971537835062282 -0.06625754512515489 0.22742948963686005
0.01922646164894104 -0.16863173246383667 -0.07862026244401932 0.2863404306314708 -0.45808231417606154 -0.84152822366507
-0.06202063709497452 -0.01170229073613882 -0.0635400041937828 -0.24387469431562445 0.1033831823158128 -0.9642805873223396
-0.09261723607778549 -0.20017211139202118 0.0032300339080393314 0.4697237787932115 -0.05077736983436068 -0.8813519333098049
-0.1054326519370079 0.3709638714790344 0.02239718846976757 -0.7647000934047035 0.0856749888634174 0.6386654550154495
-0.006580005399882793 -0.18730169534683228 -0.03361841291189194 0.24676080326756816 -0.956864260192454 0.15336196900500598
-0.12058877944946289 0.07220279425382614 0.05197184905409813 -0.919947492156717 0.19900108340014688 0.3377797810410433
-0.10028888285160065 0.25499945878982544 -0.014093873091042042 -0.7675158842532434 0.6290002742416185 -0.12360429775267057
-0.15108637511730194 -0.2879669666290283 0.024277467280626297 -0.6713297224053086 -0.16380934874309544 0.7228297870727065
-0.1173318549990654 -0.2949622869491577 -0.003386062802746892 0.9844927419722213 -0.16984226403480304 0.04390496955413767
-0.1112469956278801 0.032458703964948654 -0.018700310960412025 -0.7964024740593557 0.42142543209518746 -0.4337553509704772
-0.048302583396434784 -0.05534711480140686 0.06296354532241821 0.7386309213847218 -0.009572921633627282 0.6740420766879124
-0.013076490722596645 0.35314351320266724 -0.0004606122965924442 0.8919521175758427 0.04162422308536895 -0.4502097777753274
0.06523715704679489 -0.10343553125858307 -0.02752378024160862 0.8275889019845838 0.5612666666541892 -0.008737174305600394
-0.11297911405563354 0.18581752479076385 0.07270635664463043 -0.6947342445695421 -0.4736368673615732 0.5413062416953117
-0.12818630039691925 0.23436520993709564 0.09973172843456268 -0.6470950928774875 0.6619288888534199 0.3783095120072356
-0.1253143548965454 -0.31978362798690796 0.010798919014632702 0.8497481825345915 -0.2814989488493308 0.445742490767798
-0.03372712805867195 0.25591352581977844 -0.07291557639837265 0.5421638628560117 0.785819862097108 -0.2975659425181753
-0.0532851405441761 0.38020792603492737 -0.02465040609240532 0.23654686368107739 0.33969307801554105 -0.9103044512859275
-0.12267284840345383 -0.10573858767747879 0.08448953926563263 -0.2841992999597124 0.016303738869193382 0.9586265936230304
-0.03412068635225296 -0.01435740664601326 -0.06410795450210571 0.21910149011105517 0.1339693238373988 -0.9664609445299202
