ply
format ascii 1.0
comment VCGLIB generated
element vertex 393
property float x
property float y
property float z
property float nx
property float ny
property float nz
element face 0
property list uchar int vertex_indices
end_header
-0.15779754519462585 0.11825861036777496 0.12338443100452423 0.7138462920712645 -0.17883430380671847 0.6770832763243185
-0.14347246289253235 -0.04201558604836464 0.07792466878890991 -0.6196289051747325 0.061253353578029295 0.7825011479527728
-0.12761405110359192 0.020625993609428406 -0.0009337432566098869 -0.7789966317829475 0.40179564443376853 -0.4813777184133845
-0.081608347594738 0.3056354820728302 -0.01294446550309658 -0.4945129973619948 -0.13254318661663808 -0.8590047724672796
-0.04130822420120239 0.10458604991436005 -0.11174928396940231 -0.7569941760643992 0.281210526377349 0.5898139174851301
-0.030582236126065254 0.30401310324668884 0.037946101278066635 0.3017980691136732 -0.44950354793941794 0.8407523332522687
-0.04476134479045868 0.15219387412071228 0.07080012559890747 0.5055874713242584 -0.4036231219840555 0.7625415950882855
-0.07671315968036652 0.07105189561843872 -0.04168712720274925 -0.2627827227903053 0.09102674003494028 -0.9605515984066265
-0.12507881224155426 -0.4229404032230377 0.017544949427247047 -0.40562424457146723 -0.9023586958713442 0.14566316006867916
-0.1154291033744812 0.35563671588897705 -0.00944955088198185 -0.8822513643595569 -0.10798470583552064 -0.4582268361753995
-0.14010879397392273 0.09633670747280121 0.08680988848209381 0.6111569243640976 0.7859094590325226 0.09398689272991337
-0.11223544180393219 0.2469390332698822 0.09144524484872818 -0.21178656632019335 0.831162463711282 0.5141161437298915
-0.01860744319856167 0.10078176110982895 -0.006865381728857756 0.9660128115321434 -0.07011281639094312 -0.24880402113610106
-0.15697048604488373 -0.4123584032058716 -0.043930813670158386 -0.5407031010882634 0.34838851056914993 -0.7656798300706011
-0.14022235572338104 -0.22749091684818268 -0.013375549577176571 -0.08197542078179032 0.31579386853851493 -0.945279991844283
-0.14124616980552673 -0.3372289538383484 -0.0274609737098217 0.3760472185365244 0.026689085192347195 -0.9262160558760247
-0.04618488624691963 -0.02188212424516678 -0.06374354660511017 0.10904176089816178 0.10905307714691595 -0.9880371049434413
-0.12270541489124298 -0.42266756296157837 0.04180649295449257 -0.19417951453705976 -0.9809551414322873 -0.0046180766248569306
-0.12263427674770355 0.2458457499742508 0.08014684915542603 -0.727783216279315 0.653621884969134 0.20762952967131654
-0.14824475347995758 -0.0493733212351799 0.07401470094919205 -0.7314633219264823 0.050555192793827565 0.6800041037801567
0.07133534550666809 -0.3994925022125244 0.01481857243925333 0.7210710434631898 0.49010477413893083 0.48974877298992225
-0.11116361618041992 0.2246696650981903 -0.04306170344352722 -0.8029063057812483 0.3314164146214669 -0.49548423209640124
-0.018861450254917145 0.21866950392723083 -0.04284486174583435 0.9824346050221366 0.13769145169668573 0.1259496366991891
0.07044722884893417 -0.2481556087732315 -0.007457861676812172 0.9878611787520162 -0.13242770001816287 0.08119849618420735
-0.05980638414621353 0.3323814272880554 0.046805769205093384 -0.036415717666672 -0.12201124872399978 0.9918604492022209
-0.14528748393058777 -0.014224659651517868 0.071180559694767 -0.7236250213040566 0.1645578477919082 0.6702891490042182
-0.03445198014378548 0.1737918108701706 0.06613713502883911 0.8221898085699341 0.11788064376846162 0.5568734798035083
-0.11951365321874619 0.07465853542089462 0.07218533009290695 0.03941497302224011 -0.797970901174538 0.6014057704913977
-0.14945219457149506 -0.3650815188884735 -0.03286049887537956 -0.20536928479782351 0.17360678169251917 -0.9631636113412906
-0.044343601912260056 0.2621918022632599 -0.06134190037846565 0.3818960909167766 0.9171038089420355 -0.11435024865078086
-0.1386023908853531 -0.1140463724732399 -0.011021091602742672 -0.7329725580399499 -0.00034481444589519954 -0.680258120321522
0.0034764145966619253 -0.03242935240268707 -0.028938038274645805 0.8461513227842893 0.4639373106139369 -0.2622786891280054
0.0329357273876667 -0.350515216588974 0.025004956871271133 0.1697275845790136 0.1724024176784266 0.9702937459406853
-0.10336648672819138 -0.05822975933551788 -0.044687509536743164 -0.5864492302230533 -0.11675566276438565 -0.8015269275471893
-0.13714534044265747 -0.1786423921585083 0.06649237126111984 0.16233957288742185 -0.5645906297001454 0.8092485921702447
0.06621896475553513 -0.2096513956785202 0.006834689993411303 0.6446608110532945 0.07669491650625858 0.760611811947597
-0.10806109011173248 0.11371206492185593 -0.027607083320617676 -0.7468469159702008 -0.17080882750933682 -0.6426850150351145
-0.025494012981653214 0.03855956345796585 -0.05567491427063942 0.3208299839192478 0.7226993204504069 0.6121877274487749
-0.14930830895900726 -0.3940121829509735 0.0004181917756795883 -0.6347962797218487 0.155041920962399 0.7569647851753669
-0.15080997347831726 -0.11263032257556915 0.07803116738796234 -0.6775279095435017 0.16478927643785107 0.7167987347649981
0.08808013051748276 -0.17025789618492126 -0.013975600712001324 0.9225884231983288 -0.34961426160061887 -0.163096503536635
-0.06304122507572174 -0.1940878927707672 -0.02238350920379162 -0.5273234794329968 -0.6492084035343609 0.5481408549077913
-0.13024750351905823 0.036462489515542984 0.06132678687572479 -0.8438233934819143 0.3982663378466962 0.3596470558072842
-0.08273261785507202 0.27682673931121826 -0.02212042734026909 -0.3556217610484507 0.5254787955954305 -0.7729199172284115
0.08036084473133087 -0.42599886655807495 0.001652235398069024 0.5137947709660923 0.8574923697197674 0.026865762603706097
-0.10519702732563019 0.3772977292537689 -0.01706739142537117 -0.6101276616126989 0.5248116926666504 -0.5935629063337646
-0.03702891990542412 0.009032812900841236 -0.05078960955142975 0.46377779633055694 0.4578183142578226 -0.7584936036387506
-0.05707656219601631 -0.16274940967559814 -0.06259811669588089 0.11748849588081976 0.0005747287851971831 -0.99307407730868
-0.15222015976905823 -0.25938117504119873 0.028169944882392883 -0.5042077310743777 0.030479502455065918 0.8630443579880004
-0.16163262724876404 0.12323533743619919 0.12770454585552216 0.7204318937566958 -0.17155725569696464 0.6719717214852627
-0.16956722736358643 -0.26113149523735046 0.0012510929955169559 -0.9892553183804536 0.13943498811986976 0.04395223707616642
-0.027157461270689964 0.09833716601133347 -0.029851501807570457 0.7378887503656528 0.005991894327885357 -0.6748957617930185
-0.13168023526668549 -0.4222443103790283 0.023320838809013367 -0.30071606933375394 -0.9291094799636541 0.21523340792294574
-0.09599651396274567 -0.21574047207832336 0.010233160108327866 0.7961333901383659 -0.5630438407814414 -0.22170534153437818
0.06446749716997147 -0.22035746276378632 -0.0186654943972826 0.7350490503638882 0.04160479709626837 -0.6767362369621747
0.06984995305538177 -0.13011498749256134 0.00852132961153984 0.5708603095725251 0.5663852699469782 0.5944125107548204
0.017934057861566544 -0.344816118478775 0.0009211456053890288 -0.6786448577382015 0.012450022977917361 -0.7343610515225772
-0.08091508597135544 0.34420207142829895 0.046182695776224136 -0.38442266749719695 -0.10013102169310632 0.9177107339510824
-0.020946603268384933 0.2219688892364502 -0.03419516608119011 0.9399328264321094 0.25896299814742557 0.2224060417026537
-0.16495397686958313 0.15824849903583527 0.10512693226337433 0.23827016497671524 -0.4966083564252972 -0.8346301389301335
-0.024974599480628967 0.21751601994037628 -0.005206605419516563 0.8541541560825119 0.4722424707995445 0.21773315415919844
-0.15751120448112488 -0.3869740962982178 -0.036588940769433975 -0.7783927702716709 0.20522088287083345 -0.5932866797952823
0.013877167366445065 -0.20394983887672424 -0.012203751131892204 -0.8377124952183486 -0.5200620829172181 0.16665294856933419
-0.01253766193985939 0.02648131735622883 -0.045979805290699005 0.6789115152747905 0.4874919377469703 0.5490271077633525
-0.027164727449417114 -0.17318189144134521 -0.050226323306560516 0.4521015383123984 -0.017611878076987365 -0.89179258844541
-0.05800533667206764 -0.07776100188493729 0.06940057128667831 0.634888336572985 -0.002574115159491688 0.7725996207705087
-0.07370233535766602 -0.19452697038650513 0.015423025004565716 0.4370392084517494 -0.8909138304025944 -0.12356891629065034
-0.13996008038520813 -0.15870872139930725 0.029528459534049034 -0.9241054455240142 0.07960835491236058 -0.3737534419654363
-0.05823225900530815 0.1812952160835266 -0.1216752901673317 -0.8403493720801963 0.2163383711949489 -0.4970016519018184
-0.03212315961718559 0.13287682831287384 -0.04199373722076416 0.6511951938848705 -0.243845588068128 -0.7186683161521419
-0.011438059620559216 -0.03920755907893181 0.020861582830548286 0.7875083914271322 0.18255196910139557 0.5886470181773232
0.059922270476818085 -0.1991783231496811 -0.017943793907761574 0.48429410927528393 -0.07164133067689044 -0.8719671642098136
-0.10830394923686981 0.20995132625102997 -0.05432448536157608 -0.7417333022596015 0.180638005238914 -0.6459114640431557
-0.19365911185741425 0.1333886981010437 0.11252056062221527 -0.6684466174462554 0.03249699964497526 -0.743049839942607
-0.09053575247526169 -0.20121413469314575 0.03263842687010765 0.43624909317213784 -0.6928413979150723 0.5741581019558776
-0.04240104556083679 0.07758546620607376 -0.1164107695221901 -0.8114194533260329 -0.5336519158424196 -0.23835709236730745
0.052749425172805786 -0.332957923412323 0.011449415236711502 0.9012660876634622 -0.13670055956080257 0.41113549620965595
0.0008650109521113336 -0.09948631376028061 -0.061643123626708984 0.15432769616370226 0.17440639548727058 -0.9725046896596139
-0.12352418154478073 0.04713459685444832 0.014430592767894268 -0.9226491518832172 0.14473662326929693 -0.3574490906601691
0.08241797238588333 -0.42183566093444824 -0.017210477963089943 0.44832302505057764 0.5901045792426021 -0.6714037911468858
-0.07323145866394043 0.20235049724578857 0.07975094020366669 0.3199399532973139 0.04509826033947318 0.9463638693433227
-0.023235099390149117 0.16554103791713715 -0.11276793479919434 0.998147808934289 -0.008661036920116256 0.0602157617169008
-0.017384199425578117 0.07516241073608398 0.0029982863925397396 0.9993096396719596 0.037151311378628094 -0.0001553111280984364
0.028527267277240753 -0.3360762894153595 0.023531684651970863 -0.14878520730815953 0.175046548599192 0.9732531366041308
-0.15360777080059052 -0.1902320683002472 0.0649241954088211 0.03883674634525102 -0.6217882466336327 0.7822218889046684
-0.05433424934744835 0.2193617820739746 0.05096374824643135 0.7449864812446694 0.44842932221004383 0.4938686928171561
-0.1295730620622635 -0.20253023505210876 -0.004564018454402685 -0.28609466470398376 0.38740760535931057 -0.8763932850824907
-0.09828423708677292 0.2144755870103836 -0.06362976878881454 -0.6455531621890885 0.14752413290214128 -0.7493315320998708
-0.037432875484228134 0.1064532995223999 -0.10691173374652863 -0.2933644015673179 0.37807485354724224 0.8780641964049558
0.03260911628603935 -0.40201765298843384 0.020089641213417053 -0.482310559959121 -0.7698818583667906 0.417921581052733
-0.1646239310503006 -0.24061466753482819 0.0016287094913423061 -0.9296874283077224 0.3513118216006753 -0.1107307078013532
-0.015979869291186333 -0.14237405359745026 0.04642374441027641 0.11921261454753666 -0.028973820866834817 0.9924459029272664
-0.021166374906897545 0.1901329904794693 -0.09383273124694824 0.9952352971712287 -0.07593697481431955 -0.06115782141758815
-0.026768984273076057 0.21889708936214447 0.00018266025290358812 0.8308624870037621 0.49705014679133014 0.2502172641218834
0.07788855582475662 -0.41903769969940186 -0.015621808357536793 0.44275434729403873 0.5797276627050052 -0.6840207782274027
-0.004171140491962433 -0.01898856647312641 -0.03570704162120819 0.8257806914245089 0.3835437337610588 -0.41349782824470327
-0.16636307537555695 0.16638019680976868 0.10136367380619049 -0.05751789119164007 -0.780588153127259 -0.6223936273695625
-0.056001774966716766 0.10615770518779755 -0.04842185229063034 0.21633557182229335 -0.23978982028163068 -0.9464141601083664
-0.03768021985888481 0.11275526136159897 -0.15227104723453522 0.10071268364201212 -0.45862866473833347 -0.8829024313218067
-0.09670548886060715 -0.04235133156180382 0.09095193445682526 0.07620852248849462 -0.0032359713609162507 0.9970866509935192
0.003659480484202504 -0.18349109590053558 -0.03330346196889877 0.27961656384667 -0.6546052011600172 -0.7023578915601608
-0.08848626911640167 0.09390119463205338 0.0723322331905365 -0.2599582182207856 0.150471944717577 0.9538238404613217
-0.03047766350209713 0.22409340739250183 0.00095372210489586 0.8133062920235158 0.513523193056647 0.273544887628823
-0.022653993219137192 0.15349631011486053 0.03723907843232155 0.8585353958648516 -0.3325538691688514 0.39028822445470845
-0.0807446539402008 -0.18741488456726074 -0.013246147893369198 -0.09699307316954366 -0.9247135319725374 -0.3680994804995013
-0.012060810811817646 0.1823466271162033 -0.03435589000582695 0.8307440016479343 0.2119613882408221 -0.5147200924978551
-0.08186034113168716 0.12430541962385178 0.07141759246587753 0.02805580321437801 -0.05101053512841386 0.9983039603306745
-0.10098068416118622 0.25392115116119385 -0.007639308460056782 -0.8095746123515605 0.5725419270217558 -0.1295557364150073
-0.03919561207294464 0.1592940390110016 -0.05358929932117462 0.41700850766421715 -0.15565597719436788 -0.8954748021576759
-0.1149674728512764 0.18512466549873352 -0.042450912296772 -0.8691340667171388 -0.2452966953916932 -0.42945955025082755
-0.10668955743312836 0.0413258858025074 0.06896059960126877 0.01567922473605329 0.8390245474307663 0.5438676040363816
-0.18682174384593964 0.17048346996307373 0.10851443558931351 -0.5673472586659996 -0.023291988894090006 -0.8231491792728296
-0.013722535222768784 0.06630424410104752 -0.09475460648536682 0.9286736017219882 -0.35676832335731495 -0.1013987421693203
-0.08510288596153259 0.09119070321321487 -0.03940229490399361 -0.4058803177219966 0.011825178995949367 -0.9138497320826904
-0.10473433881998062 0.2448335736989975 -0.03817329183220863 -0.782543503010654 0.4657157079417062 -0.41320036939984667
-0.1527133733034134 -0.14080412685871124 0.05537872761487961 -0.8871177183123161 0.23791641069880218 -0.3954970737901218
-0.052491988986730576 0.09160187095403671 0.06804550439119339 0.5386371778019068 0.06707952925210206 0.8398632790192185
-0.11217387020587921 -0.1453293114900589 0.08475618064403534 0.10299857952962507 -0.20882545643972822 0.9725138669230473
-0.06777021288871765 -0.0572270043194294 -0.05920031666755676 -0.22169399085992364 -0.05286625693777837 -0.973682152087625
0.01699928380548954 -0.23763664066791534 -0.007762215565890074 -0.9698659775844335 0.09781018731240523 -0.22314379395829825
-0.17241686582565308 0.1787228137254715 0.09742531180381775 -0.596167414618841 -0.020272251144759838 -0.802604167432621
-0.1642206609249115 -0.341438889503479 -0.01655210182070732 -0.9604422027898308 -0.010738953474218233 -0.2782722587296407
-0.07171940058469772 -0.16908325254917145 0.06634379923343658 0.4408071254572964 -0.20883687306736784 0.8729697810311188
-0.1524069905281067 -0.4166615605354309 0.0060433694161474705 -0.6269146858688085 -0.7400371949400755 0.24356298312189778
-0.13105565309524536 -0.41433078050613403 -0.030733931809663773 0.6346172727113535 -0.47282233090446185 -0.6113100363763672
-0.12670983374118805 -0.28895267844200134 0.01682526431977749 0.7781200055997484 -0.07320446651123148 0.6238352049766458
0.049927398562431335 -0.3205574154853821 0.015115013346076012 0.7146553574753315 -0.018403035352095726 0.6992346160779198
-0.0018204634543508291 0.17481432855129242 -0.01008903980255127 0.98879545585373 0.1428767846892731 -0.043240847353739335
-0.08115202933549881 0.004026617854833603 0.08725538104772568 0.3015326566482867 -0.05593665077199078 0.9518136099442153
-0.11821156740188599 0.0732010155916214 0.058078836649656296 -0.7768393465160496 0.4963822402020205 0.38746006415699263
-0.04394794628024101 0.2268313616514206 0.02434481494128704 0.8047477948177204 0.4460936726775624 0.39163940293726834
-0.14418251812458038 -0.3869082033634186 0.0028495953883975744 -0.2937937104291096 0.12374529176146515 0.9478250674460802
-0.018936553969979286 0.14236466586589813 0.01551650557667017 0.9381501998094455 -0.26087536823520346 0.22763621163084874
-0.1083252876996994 0.2234995812177658 -0.0482926070690155 -0.772579199790343 0.3232767606221333 -0.5464554108918434
-0.13235247135162354 -0.3685636818408966 -0.019263604655861855 0.9001263323371986 0.08512744845171864 -0.427230503772007
-0.13867348432540894 -0.31142279505729675 0.02050493285059929 0.09781293544926303 -0.23165540196841727 0.9678679684738252
-0.08995077013969421 -0.07843708992004395 -0.05067269504070282 -0.41001382271484743 -0.05504176823047828 -0.9104169753101159
-0.014401952736079693 0.35092368721961975 0.007214826997369528 0.9284230950197889 0.048447129287566004 -0.368352320879983
-0.04526260867714882 0.37018468976020813 -0.022660547867417336 0.33657725053467197 0.2527454609774028 -0.907102798131414
-0.021016336977481842 0.18051378428936005 -0.0444016307592392 0.660828946066192 0.00953856508756571 -0.7504759288725497
-0.007320569362491369 -0.0095524862408638 -0.003316081129014492 0.9315481517995567 0.3015865671165015 0.2031343974163758
0.07491825520992279 -0.15814104676246643 0.02591780573129654 0.7434867580382395 -0.09921216300107712 0.6613504270312648
-0.1335432380437851 -0.17965945601463318 0.06595943868160248 -0.05605472654165182 -0.6151302704185558 0.7864303008195546
-0.16076448559761047 -0.38602298498153687 -0.019618477672338486 -0.9864985229337072 0.030922622085053492 0.16082430069177628
-0.09039045870304108 0.37954840064048767 -0.023534132167696953 -0.31920696514249397 0.5227571220539615 -0.7904630951198028
-0.07092159241437912 0.07752015441656113 -0.044084347784519196 -0.2797961214587539 0.0004411556526944838 -0.9600593397276693
-0.016076428815722466 0.032707542181015015 0.02431044727563858 0.9388194391146717 0.03126959575230427 0.34298727836743576
-0.11550047248601913 -0.42228662967681885 0.06347324699163437 0.05583777071272571 -0.9928185191104546 0.10579948711197562
-0.09311383962631226 -0.14133824408054352 -0.03210553154349327 -0.5855004905601716 -0.23933017665127268 -0.7745387285977823
0.0056906393729150295 -0.12414291501045227 -0.06382520496845245 0.19181162329044413 0.09654707168769426 -0.976671369560517
-0.01878051459789276 0.18872962892055511 0.023006413131952286 0.7971671332226764 0.4646689033353798 0.38549626714487784
0.06895620375871658 -0.2453082948923111 0.0015336439246311784 0.9353015341423807 -0.09132605863673454 0.34186341021640326
-0.036281805485486984 0.027003373950719833 -0.06695092469453812 0.9194072800533876 -0.2043299446609974 0.3360647662276807
-0.11837619543075562 0.09350323677062988 0.048321302980184555 -0.8786168857865299 0.07134825867082861 0.47216712506846625
-0.0962856188416481 -0.0962124913930893 0.08720435202121735 0.1567626894713701 -0.08586927457726612 0.9838962988411314
-0.09573659300804138 0.08116257190704346 0.07330767810344696 -0.32699029329503415 0.37982524172698096 0.865338161551811
-0.07415454089641571 0.2924184203147888 -0.016605379059910774 -0.30554932413921576 0.1984815977441487 -0.9312597198821596
-0.015049375593662262 -0.10535180568695068 -0.06352092325687408 -0.04228777277819047 0.09032754015066814 -0.9950139093318191
-0.15905851125717163 -0.4165894389152527 -0.04364188760519028 -0.672662006537719 0.40738342041110154 -0.6177091336015693
-0.16085828840732574 -0.0318400040268898 0.048619046807289124 -0.9551659952969376 0.05389939657008543 0.2911233011591331
-0.1762145459651947 0.10692305862903595 0.123936727643013 -0.10089351962271467 -0.6282648355064759 0.7714297078568868
-0.11091365665197372 0.05892307683825493 0.07293812930583954 -0.7117964891541484 0.21338452570131558 0.6691881665264657
-0.11324360221624374 -0.24152904748916626 0.019054250791668892 0.8327383342576167 -0.4583226662044663 0.31062388881262704
-0.12351987510919571 -0.16450674831867218 0.07766980677843094 -0.04391441053983736 -0.4892001040333305 0.8710653148649172
-0.15771639347076416 0.1599654257297516 0.10462722927331924 0.12739393493725168 -0.7949928410132108 -0.5930911971012107
-0.07895036041736603 -0.16197647154331207 -0.03267631307244301 -0.9196732376964616 -0.3429061529478489 0.1913543993103223
0.03507246449589729 -0.2037922739982605 0.010000253096222878 -0.11479308143088474 0.2763258245878503 0.9541837281789325
-0.014857377856969833 0.33392396569252014 -0.004232627805322409 0.803957107592511 0.08857392850608213 -0.588054103242621
-0.13953174650669098 0.20283283293247223 0.04873843863606453 -0.9946318494720663 0.024164283171605794 0.10061596013843681
-0.10282598435878754 0.16520459949970245 0.07256663590669632 -0.395077228887831 -0.17476243242149642 0.9018714295443859
-0.07757377624511719 0.3953990042209625 0.028567440807819366 -0.36735997139308224 0.8645266380370507 0.3429873810250579
-0.022208821028470993 0.003691504243761301 -0.028947092592716217 0.8220102193145405 0.18614435302946278 -0.5381909318984329
-0.16221486032009125 -0.02915829047560692 0.04266177490353584 -0.9702826262782965 0.16411592074806564 0.17781335635858853
0.06023366004228592 -0.3879666328430176 0.01766970567405224 0.6260388134067946 0.4051154930662251 0.6663008640140894
-0.08342507481575012 0.3165517747402191 0.03657226637005806 -0.4639840744404329 -0.3119512268823524 0.8290990355272704
0.060351863503456116 -0.2976375222206116 0.0021308627910912037 0.9322944953361209 -0.13997133891652877 0.33351911226777087
-0.1364995241165161 0.17773349583148956 0.030602699145674706 -0.9812955956909835 -0.18600748718425858 -0.049600086581333504
-0.09217234700918198 0.34618592262268066 -0.024864720180630684 -0.33728050019205474 -0.2719872061583608 -0.9012573571829341
-0.06109106168150902 -0.1753418743610382 0.05733724683523178 0.6137386748401071 -0.26193137369323555 0.7447931219343289
-0.08783267438411713 -0.20169591903686523 0.005959781352430582 0.6054538826102392 -0.47397386974418787 -0.6393546487137686
0.03652633726596832 -0.24766264855861664 -0.02955029346048832 -0.19854837663472025 0.057210901900923934 -0.9784198765557659
-0.16251203417778015 -0.16901245713233948 0.05056069791316986 -0.8648903422237468 0.3136995586227557 -0.39186385754235936
-0.05617154389619827 0.11136534810066223 0.06735652685165405 0.3822717017036683 0.05783586076177483 0.9222382334768637
-0.12816563248634338 -0.2954348623752594 0.017089858651161194 0.693821089302711 -0.18502039377653834 0.6959739577926565
0.023568792268633842 -0.18522301316261292 0.010841322131454945 -0.06445070807793774 -0.7667844619862714 0.6386608607740706
-0.03531162068247795 -0.045825619250535965 0.045539774000644684 0.6905597193288758 0.07953908493730057 0.7188885922086686
0.060938023030757904 -0.3938295543193817 0.022205859422683716 0.4468626946359803 0.08332228135723752 0.8907138314700722
-0.13264864683151245 0.23117226362228394 0.07735013216733932 -0.8573357277409304 0.5141762517890267 -0.02445878237191762
-0.10962826013565063 0.23407305777072906 0.10537070035934448 -0.025957282901417363 0.604942804255483 0.7958457281683985
-0.04469189792871475 0.2593552768230438 -0.03862027823925018 0.5802455896590741 0.7764227899818655 0.24593232174313567
0.015470565296709538 -0.25983312726020813 -0.00527824554592371 -0.9861155195141023 -0.10927215751186842 -0.12504310363284207
-0.13036499917507172 0.05936629697680473 0.08048444986343384 0.731113030468948 0.6122875620858103 0.3009612566320227
-0.1470140963792801 -0.2281588912010193 -0.01262933760881424 -0.3678964711049532 0.4464317981201192 -0.8156904046117984
-0.06250498443841934 0.033752862364053726 -0.051405347883701324 -0.1258235850849678 0.1909607659098148 -0.9735000828554164
-0.013999316841363907 0.290997713804245 0.013139010407030582 0.5859774030280264 -0.7860703064690022 0.19678403499333683
-0.11281123757362366 -0.4235767126083374 0.027150368317961693 0.2378720360132559 -0.9568679708088188 0.1667950266738244
-0.02242296375334263 0.08874484896659851 -0.13153626024723053 0.740835233479514 -0.40095958757479677 -0.5388827014918952
-0.017142657190561295 0.19574834406375885 0.010161609388887882 0.8249162329234206 0.48803414486303803 0.2851944636686276
0.0723273977637291 -0.17983783781528473 -0.014733088202774525 0.40624542808791014 -0.8639976952045689 -0.29744349856546454
-0.1503290981054306 -0.17773844301700592 0.0662352442741394 -0.08319578649399861 -0.4898911944659125 0.8678047468724785
-0.1246127262711525 0.062450211495161057 0.06783737242221832 0.7116210086787181 0.10446249956047572 0.6947540040853751
0.076931893825531 -0.17504823207855225 -0.026042314246296883 0.45910847093457224 -0.6455562821160725 -0.6103085273339975
-0.08811996877193451 0.26486116647720337 -0.0335020050406456 -0.5006767739906864 0.7615386981579998 -0.4115599339028256
-0.04573328420519829 0.2774290144443512 0.0003526618529576808 0.9049228276866964 -0.31193001407215565 -0.2895070677072643
-0.12152732163667679 0.15940415859222412 -0.017055576667189598 -0.899855953138087 -0.16896124673079943 -0.4021335110446765
-0.1172407791018486 0.07104925811290741 0.09026225656270981 0.41937724763858697 0.575706537670152 0.7019150280816968
-0.12090353667736053 0.0947510376572609 0.004289800301194191 -0.9113524972992296 -0.12484871140906782 -0.39223644007913516
-0.08882641047239304 0.2678941488265991 -0.027061957865953445 -0.4918171702401744 0.7411943058366673 -0.4568882489758828
-0.15793877840042114 -0.2560575008392334 -0.019175050780177116 -0.5889752328912989 0.23392243258174228 -0.7735557320424176
-0.03767895698547363 0.24254624545574188 -0.011789856478571892 0.8616712605152682 0.46080543744673086 0.21255819819888394
-0.023802535608410835 -0.1359289288520813 -0.05449618399143219 -0.34454557288017645 -0.38962897906258714 -0.8540946123722578
-0.1461358368396759 -0.1287456452846527 0.010646907612681389 -0.9700170233558788 -0.2396303548311595 0.04054956773250598
-0.14568914473056793 0.20676010847091675 0.0816347673535347 -0.7260116484573085 -0.02254432249148821 -0.6873127671065784
-0.023933788761496544 0.1422814428806305 -0.14271670579910278 0.8259553019330477 0.28940561047025704 -0.48377911471768403
-0.1205432340502739 -0.42287877202033997 0.03800986334681511 -0.07703588373984577 -0.9965620557786066 0.03048838465282219
0.00731301587074995 -0.18502770364284515 0.00975852832198143 -0.05959528490321557 -0.8825760521382057 0.4663774375004045
-0.10957633703947067 0.34552547335624695 -0.013244657777249813 -0.8005532403090954 -0.33700221472529357 -0.495523981963391
-0.04041489213705063 0.11855679005384445 -0.04551643505692482 0.5310393691447415 -0.1677565390914441 -0.8305750610332674
0.06676267087459564 -0.1693175733089447 0.01595655456185341 0.4770050430505821 -0.632967140355015 0.6097694549049723
-0.03434763848781586 -0.06704926490783691 -0.061340250074863434 0.0790882648168975 -0.043790898801127756 -0.9959053185672028
-0.09436535090208054 0.3923994302749634 0.003617070848122239 -0.4407178963715999 0.8976151895377528 -0.0073964402854296216
-0.10554627329111099 0.38734376430511475 0.010665974579751492 -0.49944214704028833 0.8501668279164798 0.16665505233930872
-0.15111151337623596 -0.24640637636184692 0.026135805994272232 -0.413547855403596 0.11533585055829045 0.9031477248308175
-0.1274982988834381 0.18700438737869263 0.0642990916967392 -0.6786235689966688 -0.690530201400778 0.250276032723121
-0.12775000929832458 0.14651447534561157 0.0433497279882431 -0.9227967384077304 -0.19009977049731452 0.3351242409031664
-0.09819014370441437 0.01720021292567253 -0.0431724488735199 -0.5782741930460571 0.33765943992176334 -0.7426877273044524
0.08206149935722351 -0.14969176054000854 0.014445981942117214 0.8375919708615664 0.20264530533583777 0.5073209739145249
-0.05902819335460663 -0.06259109079837799 0.07022611051797867 0.6776603033469978 -0.005088745578357976 0.735357476290337
-0.08734530955553055 0.2889913022518158 0.031223993748426437 -0.5128308909312229 0.4349280836320179 0.7401635220509512
-0.1329563856124878 -0.051730114966630936 0.08479516953229904 -0.47428409348147205 -0.01810260519799903 0.8801857158324622
-0.01377044152468443 0.05711441859602928 -0.09161026030778885 0.927341762513252 -0.35424807802096764 -0.12060495312078173
-0.017668189480900764 0.11432961374521255 -0.135265052318573 0.9129236068450821 -0.16552012966063437 -0.3730597468798969
-0.05628194659948349 -0.20579086244106293 -0.020632319152355194 -0.539035319479037 -0.6928230133554455 0.47899602975307937
-0.04564129188656807 0.1247294470667839 -0.04953731596469879 0.42914583737433687 -0.2549494732313369 -0.8665071357832798
-0.19568157196044922 0.13359375298023224 0.1431991457939148 -0.5517153362190889 -0.5085144602716628 0.6610773263962978
-0.12154610455036163 0.03552481532096863 0.0025038444437086582 -0.8210954170954217 0.34901087290281 -0.4516566468242377
0.03876669704914093 -0.2541227340698242 -0.030132943764328957 -0.22885567281123714 -0.009684048170946513 -0.9734121944136198
-0.1319289356470108 0.03999749571084976 0.04615107923746109 -0.8921258230406611 0.4226978058384652 0.15949319986560664
-0.15512485802173615 0.1585807353258133 0.113612599670887 0.37247422428577354 -0.8202513283011266 -0.43410909995408825
-0.025015095248818398 0.04275640845298767 0.04333915933966637 0.872112794559525 0.0516882166105043 0.4865671606563698
0.04288707301020622 -0.30876049399375916 0.020918982103466988 0.5355449094763748 -0.03383989455704957 0.8438284846284282
-0.1605716347694397 -0.035370584577322006 0.05039791017770767 -0.9551659952969376 0.053899396570085446 0.29112330115913315
0.012986307963728905 -0.38844868540763855 0.0008656392456032336 -0.6022646107311247 -0.20883313758312766 -0.7704972805325618
-0.05610962212085724 -0.18415077030658722 0.05175112932920456 0.1552699746291443 -0.9453951003552882 0.2865647207924933
0.03820434585213661 -0.2752583622932434 0.025739436969161034 0.05031272100040073 0.006335608711444318 0.9987134174365494
-0.1002173125743866 0.31382203102111816 0.014848054386675358 -0.9323423821496364 -0.3185493363016479 0.1710672463954487
0.03315894305706024 -0.10298760235309601 0.012023583985865116 0.447482403381091 0.4987343537299802 0.7423096005534493
-0.14529630541801453 0.20541374385356903 0.0810597687959671 -0.7829528659897396 -0.07513513043180342 -0.6175269401519652
-0.043211430311203 0.2606309950351715 -0.06555510312318802 0.3201382776921074 0.8598140915043662 -0.3977828694235745
-0.030966978520154953 0.23515485227108002 -0.09282278269529343 0.2930073657056424 0.4901683182237102 -0.8209029805354465
-0.11601293832063675 0.12291114032268524 0.05589041858911514 -0.7564980140165944 -0.18592284416816357 0.6270115236623401
-0.10667640715837479 0.06552574038505554 0.08879881352186203 0.5116685805235187 0.6072749774112943 0.6077930285180633
-0.019291426986455917 0.22558976709842682 -0.04917997866868973 0.9802376497324329 0.16253803656380553 0.11276318866110283
-0.014311539940536022 -0.19565173983573914 -0.03598815202713013 0.6721873280353076 -0.5904817794474342 -0.4466491510899193
-0.15727856755256653 -0.04857149347662926 0.0578879676759243 -0.9011505346591862 0.003357549360011424 0.4334932995396329
-0.020946316421031952 0.04431215301156044 -0.0625656470656395 0.6224341209329104 0.5795137441144806 0.5260604390000179
0.08899369835853577 -0.4132765531539917 0.013675677590072155 0.46419177730384514 0.8802465162619998 -0.09844828333754893
-0.06779023259878159 -0.01621204800903797 0.0794128030538559 0.6194309663909832 -0.06153728762548993 0.7826355729888788
-0.14712855219841003 -0.4211138188838959 0.003174861427396536 -0.3291316593418875 -0.9412878470941125 0.07516342017089486
-0.139962300658226 -0.17863786220550537 0.017095452174544334 -0.9167423520309682 0.20347246070986402 -0.34377669747293954
0.066946841776371 -0.24318422377109528 0.006318901665508747 0.886934438498734 -0.04819984413593141 0.4593735700170477
-0.01060139574110508 -0.13885954022407532 -0.0626647025346756 -0.313414708229139 -0.33318279673914947 -0.8892471223584153
-0.05016632750630379 0.3899555802345276 0.040770526975393295 0.017109625608368578 0.6642629494585323 0.7473031477842127
-0.08627546578645706 -0.10285332798957825 0.08460059762001038 0.24947479393476937 -0.10102508402641731 0.9630972222930869
-0.05225972458720207 0.015438081696629524 -0.05714896321296692 0.11560436540352498 0.19876312273792476 -0.9732054519674235
0.04809735715389252 -0.41460469365119934 0.004874288570135832 -0.6725199127051313 -0.7387284365315196 -0.044690760507953765
0.028957130387425423 -0.1661200374364853 0.03959248960018158 0.3132153600371031 -0.4391120632481074 0.8420669416066742
-0.03631311282515526 0.05001763999462128 -0.04273988679051399 0.707329729917106 0.379323017263153 -0.596488643437385
-0.07287047058343887 0.25458621978759766 0.04229171946644783 0.5918423751863272 0.440652094550386 0.6749432083532394
-0.10820216685533524 -0.03873274847865105 -0.04458094388246536 -0.613779270514669 -0.07251464584922568 -0.7861403393948452
-0.09108372032642365 0.29682016372680664 0.02627386711537838 -0.8849844509834477 0.014259586780086708 0.465402176297433
-0.12935833632946014 0.03509865701198578 0.06535373628139496 -0.7293422430464631 0.42453077085633323 0.5365011808971919
-0.012943513691425323 0.14420968294143677 -0.008788148872554302 0.8896221574008935 -0.45357962092904125 0.05327236187036589
-0.026177968829870224 -0.16059520840644836 -0.0493842251598835 0.2782965955822818 -0.16728898683703425 -0.945814675171807
0.04496224597096443 -0.21947592496871948 0.016362231224775314 0.012231657407320582 0.3089250385112648 0.9510077324280195
-0.07675718516111374 -0.012250827625393867 0.08554898947477341 0.41864602378550436 0.011445211773747266 0.9080773721969077
-0.10986914485692978 0.08560767769813538 -0.01480401773005724 -0.8553310459536245 -0.16990699324620995 -0.4894286622929954
0.02897419035434723 -0.09635256230831146 0.009510137140750885 0.5030975120524908 0.45091979987412817 0.737268083839298
0.03872933238744736 -0.37233391404151917 -0.0024579919409006834 0.2493685609513026 0.018992045306604116 -0.968222403698731
-0.017175227403640747 0.17395839095115662 0.03336063399910927 0.9036985234422455 0.04613724082121029 0.42567632508481246
-0.11210329830646515 0.19423948228359222 0.10667164623737335 0.6349961208353958 -0.47781982160234826 0.6070157696533918
-0.04845379665493965 0.023396912962198257 0.06856376677751541 0.639025757034789 -0.10971970772530275 0.7613196881618056
-0.01020708866417408 -0.10203783214092255 0.04119287431240082 0.37994969533777007 0.17514980075512876 0.9082735140408832
0.017481302842497826 -0.2916796803474426 0.0010640743421390653 -0.9882336869345177 -0.06851814030053659 -0.13674591203237324
-0.0453004315495491 0.06000096723437309 0.06667688488960266 0.588522090593757 0.08495667942375054 0.8040050444521126
-0.111895851790905 0.1776895523071289 -0.04356684908270836 -0.8671088607453685 -0.24851607473868145 -0.431696634470721
0.01686263084411621 -0.28552430868148804 0.0006091164541430771 -0.9986945148723146 -0.05106604716262394 -0.0012348243343816266
-0.04527386650443077 0.074180968105793 0.06378407776355743 0.610676094402049 0.08619090432525318 0.7871758607436173
-0.16081678867340088 -0.39218711853027344 -0.031189212575554848 -0.9177262420441381 0.004847108188544545 -0.3971838997312865
-0.06072653830051422 -0.11933529376983643 0.07051458954811096 0.5385119651703681 -0.09288868163942227 0.8374822721655893
-0.022135412320494652 0.1297512650489807 -0.14449425041675568 0.8497457517098332 0.1480394425058384 -0.5059807119976524
-0.024293774738907814 0.10343819856643677 0.0330033153295517 0.9105483240938533 0.052029443168524946 0.41011545512629544
-0.025525836274027824 0.3935914933681488 0.02639472484588623 0.5344429172971156 0.7618382681510165 0.36602352565321317
-0.036837898194789886 0.24182674288749695 -0.08876557648181915 0.22120873821019857 0.6129193918993234 -0.7585489523908232
-0.0820569097995758 0.015594840049743652 0.08882484585046768 0.21447008487928526 0.07982736797783836 0.9734629802995094
-0.07076733559370041 -0.19521623849868774 -0.0482771210372448 -0.7801482753050555 -0.5290231094578925 -0.33392097597792497
-0.007826399058103561 0.015325640328228474 -0.06122800335288048 0.9243956506102456 -0.05841957486095608 -0.37693478800175223
-0.08271104842424393 -0.001568324165418744 -0.05353556200861931 -0.3665207557982897 0.1312069325079556 -0.9211119782257223
-0.1498221755027771 0.16272571682929993 0.11208128929138184 0.4786536688081564 -0.8780015034014126 0.0020063303195066444
0.031182484701275826 -0.11165841668844223 -0.046926580369472504 0.30337632297587835 -0.018657736066811793 -0.9526881418084812
-0.044692330062389374 0.23444786667823792 0.017987165600061417 0.8497516310706487 0.3582412648124849 0.3867626684134901
-0.1203421875834465 0.256019651889801 0.03390130400657654 -0.7986095201358913 0.5987909496566585 -0.06059895178630535
-0.04329328611493111 0.24419407546520233 0.006544833537191153 0.886168921153348 0.32936878248234963 0.32591540053824725
-0.12444600462913513 -0.23432040214538574 -0.012460115365684032 0.2731772043631118 0.21638505984540676 -0.9373108987374758
-0.1587766408920288 -0.33412429690361023 0.007723769173026085 -0.7346049254590353 -0.2042813923058246 0.6470121453643037
-0.018492817878723145 0.1249765083193779 0.008627768605947495 0.9899204121485773 -0.08063790151255032 0.11642639928832021
-0.1453385055065155 -0.06106196716427803 0.07729264348745346 -0.6574971066005828 0.00870451120329289 0.753406786733816
0.05491350591182709 -0.10296456515789032 -0.005488441791385412 0.7649058573313993 0.5341226161176381 0.3600445255406162
-0.12253047525882721 -0.07412202656269073 -0.021926691755652428 -0.6584522752448161 -0.04192813128230413 -0.7514536798979021
0.07824748754501343 -0.13958176970481873 0.008435795083642006 0.7238700079303144 0.5165787115477359 0.45733865613421265
-0.09502362459897995 0.07837631553411484 -0.03174738585948944 -0.6227730326212874 -0.03148648734711576 -0.7817687323973919
-0.14112208783626556 0.0848817378282547 0.0783039852976799 -0.29733277026147387 0.3926750997469213 -0.8702870157410044
0.042407047003507614 -0.13982155919075012 -0.04260902851819992 0.4188223647492881 0.06855220514767042 -0.9054769030489987
-0.03609618544578552 0.2001238912343979 -0.11273829638957977 0.4205761369844155 0.3312715986347975 -0.8446152028807034
-0.14251650869846344 -0.13552600145339966 0.01085740141570568 -0.8901154742639932 -0.41402070079268377 0.1904765124389921
-0.16151562333106995 -0.1771816909313202 0.041577331721782684 -0.7496448809478555 -0.09348102922549917 -0.6552051965938739
-0.11362828314304352 -0.0663890615105629 0.08936858922243118 -0.14744511644324684 -0.06573393632311374 0.9868834719725051
-0.11150553822517395 0.05227192863821983 0.0650801807641983 0.7922661284376618 0.36834292127354107 0.48645439054249723
-0.14210353791713715 -0.4010719954967499 -0.038906220346689224 0.34362867187062596 0.15005268977753597 -0.927040196625236
-0.044270362704992294 0.1870633214712143 -0.05875867232680321 0.33423107798468965 -0.6430344710129396 -0.6890546100261583
-0.054154373705387115 0.12510396540164948 -0.052986323833465576 0.2253258268597945 -0.18722594273408005 -0.9561248444200605
-0.07814683765172958 0.3807503581047058 -0.025191104039549828 -0.04364664944604806 0.4492209504377181 -0.8923539139153069
0.0269300639629364 -0.2144630253314972 0.0104577811434865 -0.34873226765719234 0.24811468634678135 0.9037836621192656
-0.09245967119932175 0.3870007395744324 0.027316777035593987 -0.4523830159151527 0.8244893838627759 0.3399512653441534
-0.012392736971378326 0.34260398149490356 0.018761420622467995 0.9181627509805527 0.3931419376110555 0.0491587184866415
-0.09422571212053299 0.06775211542844772 0.07930906116962433 -0.2296229039452238 0.2176694874843235 0.9486270690856731
-0.07597044110298157 0.15553461015224457 0.07922706753015518 -0.16697258478637406 -0.3143225124091085 0.9345167275777266
-0.02666478604078293 -0.0888586938381195 0.04733511805534363 0.5132839630308423 0.1405287947569856 0.8466352409033668
-0.13692691922187805 -0.19031447172164917 0.006604374852031469 -0.6234431270176302 0.44165898125983083 -0.6451790539431728
-0.08349679410457611 0.1997789591550827 -0.07288895547389984 -0.5072934526809072 -0.23313425684664185 -0.8296395429050186
-0.06202319264411926 0.1723950058221817 -0.10432836413383484 -0.9236400123877981 -0.3560540755212386 0.1418260301248833
-0.1492166519165039 -0.13440729677677155 0.0818532407283783 -0.4872478347412847 0.03829090182083356 0.8724238387261534
-0.1397843062877655 0.17044200003147125 0.10372225195169449 0.7019052717709473 -0.706674880477834 -0.08910444860831447
-0.06851333379745483 0.0911707729101181 0.07382382452487946 0.15168543737289933 0.24775347928635763 0.9568749874411477
-0.12686412036418915 -0.02120804786682129 -0.026624619960784912 -0.753742923001157 0.13261042553859423 -0.643650589267302
0.06414484977722168 -0.15357503294944763 0.030359309166669846 0.4750663812655586 0.32061702025609523 0.819461200859046
-0.15993167459964752 -0.08816348016262054 0.023173904046416283 -0.9799575395494007 -0.19416111122503682 -0.04454978752075106
-0.03442150726914406 -0.18826812505722046 0.02193773351609707 0.08609453842736231 -0.9912931332950201 0.09962757818556635
-0.12150163948535919 0.37367188930511475 0.007521808613091707 -0.9440077293613549 0.17225347430143065 0.28138611816702214
-0.04601939767599106 0.3909527063369751 -0.01272499281913042 0.26895651826972655 0.7129565267556097 -0.647576545465325
-0.13317963480949402 0.0800638347864151 0.093808613717556 0.730799637653984 0.44452073292731564 0.518008887571022
-0.12139549106359482 -0.10986067354679108 0.08764045685529709 -0.051280101852742455 0.011449463231541324 0.9986186764454599
-0.032208316028118134 -0.02896054834127426 -0.06104390323162079 0.2827167577180019 0.10023606719938462 -0.9539517627940215
-0.04176180809736252 0.31501153111457825 -0.017097268253564835 0.1201980297653888 -0.31882778457932703 -0.9401602402892589
-0.10714075714349747 -0.23239728808403015 0.01526211854070425 0.7932627333052844 -0.6048689070664226 -0.06976991624834163
-0.037955392152071 0.3832018971443176 0.04429597035050392 0.23700459779675162 0.415699623875698 0.8780789505123121
-0.032087258994579315 -0.04062259942293167 0.0409664511680603 0.67097722603363 0.055508957726791076 0.7393972665328838
-0.14323224127292633 -0.19125249981880188 0.056112296879291534 0.0876904649619914 -0.7574634517114857 0.6469617466868283
-0.014215842820703983 0.03302352502942085 -0.07592326402664185 0.9016408014874657 -0.066744642138214 -0.4273043620639535
-0.09119618684053421 -0.1090192124247551 -0.04824173077940941 -0.6170672442212392 -0.11604696538110958 -0.7783065706616135
-0.017588632181286812 0.019559133797883987 -0.06812428683042526 0.27315974341400484 -0.5990842364094738 -0.7526498736223057
-0.06011668220162392 0.06524152308702469 0.07575464248657227 0.4511831025686116 0.1734636382407652 0.8754108602049889
-0.0680057480931282 -0.16306708753108978 0.06658312678337097 0.46773479505599236 -0.253735575116258 0.8466654707819086
0.05173356086015701 -0.3244766891002655 -0.010026464238762856 0.7764103101117826 -0.3193928696958592 -0.5433003084294814
-0.03813084959983826 0.015088464133441448 -0.05489329248666763 0.19435889684385205 0.27772466332006684 -0.9407941488983635
-0.02924899011850357 0.10490519553422928 -0.14622151851654053 0.1615462154826545 -0.48292283523677065 -0.860632532193683
-0.11197799444198608 0.02820102870464325 0.08342572301626205 -0.5812195127061911 0.3874444426813463 0.7155911415640351
-0.024815572425723076 -0.19259585440158844 -0.008511578664183617 0.08267898333650264 -0.9684372781146877 0.235145538065806
-0.15613973140716553 -0.02024584636092186 0.010709216818213463 -0.8220501946616876 0.2797851031021825 -0.4959372677454103
-0.03571302071213722 0.02937355265021324 -0.04827375337481499 0.8062267015694714 -0.2075937651074396 -0.5539885688034797
0.06554464250802994 -0.25512853264808655 -0.020972207188606262 0.7445089534616747 -0.06665266784869427 -0.6642769302663262
0.015816722065210342 -0.14195309579372406 -0.06508086621761322 0.3246599308721329 0.161088856382145 -0.9320119686117742
-0.0879300981760025 0.1287388652563095 0.07134296745061874 -0.15497474601957056 -0.07422016696518541 0.9851264867578323
0.04742252081632614 -0.34816884994506836 -0.0031170824076980352 0.6146600402397765 -0.10220807998377168 -0.7821422781811933
-0.16678957641124725 0.0896243304014206 0.08914011716842651 -0.8115623841326973 -0.4361351139238222 -0.388783563263041
-0.13518190383911133 -0.054957952350378036 -0.012953207828104496 -0.7107970567701748 -0.07060969281115163 -0.699844136481811
0.03516487404704094 -0.15467043220996857 -0.06093202903866768 0.5632042331907264 -0.008808960517717773 -0.8262707751885234
-0.04693467170000076 -0.0533120222389698 0.058637090027332306 0.7053704074941459 0.02395310060595763 0.7084340739990584
-0.1046227291226387 0.24499405920505524 0.09604606032371521 -0.01499946041168067 0.7093019347486823 0.7047451890925788
-0.09070248156785965 -0.11055528372526169 0.08532650023698807 0.17726833548203452 -0.08763265348488254 0.9802532607844912
-0.05348615720868111 -0.15652140974998474 0.05782047659158707 0.4899585035648938 -0.23124086247798187 0.8405167031682886
-0.19259338080883026 0.15336769819259644 0.11546387523412704 -0.5945358020181606 -0.07233577884415551 -0.8008087881745753
-0.02379552647471428 0.20650622248649597 -0.10153785347938538 0.8199873377863731 0.23544097531352687 -0.521716698039685
-0.0408581979572773 0.08671595901250839 0.05867861211299896 0.7308330779323808 0.08808514585531965 0.6768485940589147
-0.13232357800006866 0.08682641386985779 0.07900000363588333 0.15123056121114395 0.7794836801443461 -0.6078935019757896
-0.06677618622779846 0.18862634897232056 -0.0689454972743988 -0.2903671871308418 -0.8055587333930027 -0.5164901002845884
-0.057807162404060364 0.13208436965942383 -0.055233340710401535 0.22274990636340136 -0.15100594270179005 -0.9631093834470931
-0.12970520555973053 -0.3596229553222656 -0.008055543527007103 0.9953573212898768 -0.08637380241299913 0.04246609484472842
-0.10873814672231674 0.25027793645858765 -0.005153105594217777 -0.710908218074819 0.6833167484986876 -0.16639629411398307
-0.0739264115691185 0.29724419116973877 -0.016094455495476723 -0.34690070680056184 0.05837246871085718 -0.9360836258144198
-0.0643090158700943 0.32402586936950684 0.049177613109350204 -0.1506104084925332 -0.24506359307423622 0.9577370934673344
-0.09034143388271332 0.20327237248420715 -0.06939123570919037 -0.5609122361072489 -0.06740723969422087 -0.8251264917707902
-0.028735147789120674 -0.021114446222782135 -0.058049190789461136 0.3983707760209815 0.15893177733841654 -0.9033501065281905
-0.03817734867334366 0.28831687569618225 0.021254276856780052 0.5123381597103497 -0.802539107714106 0.30568053698928693
-0.16695716977119446 -0.29227501153945923 -0.014602531678974628 -0.900560199760916 -0.04415462811284077 -0.4324831735718699
-0.09606963396072388 0.2669152319431305 -0.016350554302334785 -0.8008386108580018 0.5748504888783748 -0.16794176012927725
-0.11756733059883118 0.09924830496311188 -0.0015160883776843548 -0.8891080800566934 -0.16584148171162966 -0.42659515342018567
-0.055122893303632736 -0.06226944550871849 -0.06056644767522812 -0.1192988488288933 -0.07977881744295734 -0.9896479803220457
0.05543609336018562 -0.4190255403518677 -0.006692113354802132 -0.38156050411362064 -0.7901129355742895 -0.4797219306418442
-0.08520486950874329 -0.14842019975185394 -0.05022484064102173 -0.7946932712084123 -0.16101067735330485 -0.5852676024472078
-0.03496835008263588 0.23794415593147278 -0.021493511274456978 0.8424262939573407 0.47539869609214214 0.25360208793145056
-0.033188097178936005 0.39949384331703186 0.016325803473591805 0.33688543201550175 0.9415297390851842 -0.005473217875614493
-0.06653766334056854 -0.09057717025279999 0.07601583749055862 0.5602923658746846 -0.03174675226019827 0.8276862983422392
