ply
format ascii 1.0
comment VCGLIB generated
element vertex 393
property float x
property float y
property float z
property float nx
property float ny
property float nz
element face 0
property list uchar int vertex_indices
end_header
0.025814063847064972 -0.4083992838859558 -0.006773669272661209 -0.29115335946625426 -0.4046815103320385 -0.8668694229622443
-0.15997536480426788 -0.2249039262533188 -0.009529991075396538 -0.6734372670691953 0.39046184015075075 -0.6277115569339656
-0.11882977932691574 0.04575490951538086 0.09745185822248459 -0.27004372174134894 0.010658728100077229 0.9627890630160739
-0.06320301443338394 0.30490902066230774 0.03862692788243294 -0.07113360741293218 -0.3853615202234821 0.9200198414314061
-0.03833689168095589 0.09525715559720993 -0.12193664908409119 -0.9369615153122672 -0.16073029517423063 -0.3102722853187901
-0.010965690016746521 0.07364296913146973 -0.09583418071269989 0.922176131139141 0.2058683784810789 0.3274284561531221
0.021401310339570045 -0.17676572501659393 0.03588627651333809 0.15779234173472428 -0.666697048467262 0.7284343638619153
-0.1556393951177597 -0.11152604222297668 0.035237278789281845 -0.9699367373882316 -0.24295258017480714 -0.01402744634910012
-0.11058362573385239 -0.17852170765399933 0.07064596563577652 0.04872744076054472 -0.4645529171677123 0.8842037229439245
-0.125051349401474 0.025323498994112015 0.07818157970905304 -0.5997837899172683 0.25538679889372384 0.7583119333778776
-0.11406949162483215 0.05022948607802391 -0.008832256309688091 -0.879274923847661 0.02763163292659313 -0.47551246161851524
-0.12056790292263031 0.23872306942939758 -0.0029943801928311586 -0.7530407708777425 0.571064515270123 -0.32682551429647405
-0.10763329267501831 0.34729650616645813 0.031176000833511353 -0.7473996871934835 -0.030124319185311228 0.6636913687676711
0.06333047151565552 -0.12919850647449493 0.010425944812595844 0.6590049645353578 0.5654850429862422 0.49592249684461753
-0.04057590290904045 0.25128963589668274 -0.03292530030012131 0.6839782494136811 0.6566321582834594 0.3178174995764112
0.019083531573414803 -0.1957053244113922 0.0047728754580020905 -0.5218192456551878 -0.4605940544573798 0.7180235315519703
0.02824953757226467 -0.08177527040243149 0.0041857450269162655 0.7149906179593851 0.49484235288333905 0.49388203249656476
-0.03746834769845009 0.25992873311042786 -0.05462772771716118 0.45262556633569284 0.8914010979243557 -0.02311231962712998
-0.16023141145706177 -0.3685433566570282 -0.029756350442767143 -0.7213167738876171 0.1341384760765788 -0.67949170778179
-0.034666985273361206 0.3873814046382904 -0.005698171444237232 0.4649075094435865 0.665277697572385 -0.5841802742097235
-0.13315720856189728 -0.3439139127731323 -0.014462136663496494 0.9182583379545676 0.08861994146699984 -0.38593798821999986
-0.13212598860263824 0.23706254363059998 0.03441806882619858 -0.9031933921726334 0.41314152718473574 -0.11642926973556163
0.08134516328573227 -0.1604890525341034 -0.02236221916973591 0.568332649419365 0.045766151968535694 -0.8215250811374891
0.07232649624347687 -0.40752485394477844 0.0173264779150486 0.4596125316471814 0.33690897745004567 0.8217351529942195
-0.03826170042157173 0.0958954468369484 -0.1229725182056427 -0.9353725453275881 -0.20850176418099955 -0.28566626643830406
-0.09788426756858826 0.37234506011009216 0.035985853523015976 -0.5985575813624557 0.3460735351291364 0.7224693281217892
-0.1588340848684311 -0.42223042249679565 -0.03126400709152222 -0.5196555921019832 -0.8443428254887835 -0.13054983202882764
-0.10543394833803177 0.27013301849365234 0.031031513586640358 -0.6809944214081056 0.7097776344683414 0.1801729935910626
-0.15918594598770142 -0.16170376539230347 0.0855259820818901 -0.26437456229311246 -0.4983393913026212 0.8256899792830588
0.016916710883378983 -0.3463476598262787 -0.0001955953484866768 -0.9242742101051059 -0.03480075049730464 -0.3801395694996864
-0.01682816445827484 0.023768989369273186 -0.07486366480588913 0.18539963135268311 -0.6755897361953415 -0.7135863542990422
0.03655123710632324 -0.14668862521648407 -0.0349658727645874 0.5749617084024095 -0.011599336357892454 -0.818098092692459
-0.020229963585734367 0.18987347185611725 0.014932219870388508 0.7640849005344091 0.5082725919356421 0.3972823140568257
0.011663373559713364 -0.25388437509536743 -0.004537846893072128 -0.9564955940472897 0.09714651023012265 -0.2750976810484436
-0.12684498727321625 0.0942823737859726 0.03032352589070797 -0.9849495195419615 -0.08068710677028194 0.1528529841223274
0.011838800273835659 -0.3477461636066437 0.004629817791283131 -0.9840890851725125 0.16264625088423867 -0.07151831595912217
0.00641451682895422 -0.19789448380470276 -0.008046870119869709 0.09827532521869153 -0.905131114939365 -0.4136177283697865
-0.03418668732047081 0.3164284825325012 -0.016099214553833008 0.3679562060088655 -0.22080481455879658 -0.9032460707510533
0.027820393443107605 -0.21843929588794708 -0.019559815526008606 -0.22602109604700044 -0.0016389469362602996 -0.9741210284121029
0.08259804546833038 -0.1666664332151413 -0.02267073653638363 0.5908696059844367 -0.16823130257406582 -0.789031898948344
-0.013231554068624973 0.057236481457948685 -0.08173594623804092 0.7017710865967812 0.418513390877423 0.5765100898276234
-0.17183592915534973 -0.24507200717926025 -0.0012539902236312628 -0.9483804436441582 0.30610474645710145 -0.08291211196045695
-0.1566934436559677 -0.4219735860824585 -0.02499695122241974 -0.5975215449949526 -0.8018175376535819 -0.007525927051967061
-0.12585102021694183 0.08933689445257187 0.03809467330574989 -0.9021133336608631 0.13918612792537438 0.4084345174252853
-0.19061699509620667 0.15457947552204132 0.1446007788181305 -0.07620432251789695 0.2454494632708611 0.9664095727017787
-0.002702275989577174 -0.02451857179403305 -0.021198691800236702 0.9060494548055023 0.4064453649843091 -0.11779877218979765
-0.1732957512140274 -0.28896987438201904 -0.013001167215406895 -0.968648320129674 -0.0779613098595413 -0.23588655340003067
-0.07921786606311798 0.16794008016586304 0.08167880028486252 -0.22331214456738727 -0.08004051034624417 0.971455198551239
0.028800027444958687 -0.3891407251358032 -0.002988233929499984 -0.17118041957761376 0.0838421186509114 -0.9816658102905278
-0.02079872041940689 -0.03790608048439026 -0.05355774983763695 0.45479173044884597 0.1844471614028038 -0.8712885438049741
-0.09840457141399384 0.2834351658821106 0.006141019985079765 -0.9557559510939736 0.1517344541037229 -0.25200638362212074
-0.02411685511469841 0.10065596550703049 -0.026218559592962265 0.8634502075927387 -0.117109846460697 -0.4906516308645153
-0.09783090651035309 0.19492481648921967 0.08413336426019669 0.2956977088628284 -0.618095567706414 0.7283685428098606
-0.021363111212849617 0.21813127398490906 -0.030047642067074776 0.9332200194478112 0.30033128223244215 0.19723467295190314
-0.023849809542298317 -0.17920313775539398 -0.041617996990680695 0.4436818621589498 0.06561456513758741 -0.893779130452805
-0.11562678962945938 0.05232064053416252 0.07865959405899048 -0.43814573218482994 0.7428191018193495 -0.5062095409418064
-0.13347700238227844 -0.3100672662258148 0.012333471328020096 0.7771474399515802 -0.16168686913561547 0.6081934009226239
-0.015274201519787312 0.0431223101913929 -0.09381416440010071 0.8490333652475652 -0.19408697604088 -0.49139860645681666
0.014476081356406212 -0.22766372561454773 0.0019996592309325933 -0.9879564565871819 0.0484837995444438 0.14693999138911787
-0.09361303597688675 -0.006950847804546356 0.08867459744215012 0.16104362992365176 -0.002714201618676402 0.9869435558179541
-0.034360047429800034 0.0331365130841732 -0.07044008374214172 -0.9734521092765213 0.17210355917527329 -0.1509018086846373
0.01635713130235672 -0.08014683425426483 -0.044901445508003235 0.46261144590194586 0.1832086142958704 -0.8674244945632433
-0.09251631051301956 0.36216601729393005 0.04318759962916374 -0.525952953522048 0.13999136550032476 0.838913528480015
-0.09158710390329361 0.07941526174545288 -0.03629568591713905 -0.5416127978451519 -0.09269261851247017 -0.8355020381086143
-0.0666390135884285 0.30033349990844727 0.03802065551280975 -0.03626677214578726 -0.29226276377096255 0.9556501442217671
-0.025897884741425514 0.0965578630566597 0.03361312672495842 0.9136206919553057 0.04961150415721455 0.4035293420389245
0.017054470255970955 -0.07017944753170013 0.00896115880459547 0.7272084064865464 0.43332802217341626 0.5323483434130073
-0.06550885736942291 0.012873923406004906 -0.054364193230867386 -0.09826057252362097 0.21547079012051662 -0.971554012133227
0.0636274442076683 -0.1807471364736557 0.015073917806148529 0.4650272972302973 -0.5903629152869909 0.6597129990264934
-0.055745989084243774 0.06178825721144676 0.07124257832765579 0.48808726863187646 0.11958549471308781 0.8645635474930113
-0.11839345842599869 0.20095300674438477 -0.04206043854355812 -0.889126733393345 0.07696009892015956 -0.45114387410168705
0.0517185814678669 -0.10067055374383926 -0.017612919211387634 0.8471858172205846 0.5206901556691441 -0.10563121172046061
-0.09971596300601959 -0.19309087097644806 0.06321101635694504 0.18757379367881016 -0.9303591623900038 0.3150363485090407
-0.13270175457000732 -0.0884789526462555 -0.023327918723225594 -0.4169354783131919 0.10725270187903685 -0.9025860983105137
-0.12116988748311996 -0.033095214515924454 -0.03446232154965401 -0.657924849100067 0.0023510225499915136 -0.7530799198157015
-0.03790998458862305 0.16147480905056 -0.13553312420845032 -0.051341672576866185 0.4332687322118569 -0.899801221573154
0.0640980675816536 -0.11945018172264099 -0.009105476550757885 0.8076241279637589 0.5682522424777383 0.1575838089709717
-0.027572819963097572 0.3912599980831146 0.007434167433530092 0.5729578521107273 0.7410128364684985 -0.3501703526764828
-0.1029433086514473 0.330587238073349 0.03228219971060753 -0.7269968472037768 -0.30493432109050883 0.6152159328047666
-0.1558975875377655 -0.18228264153003693 0.02109823375940323 -0.9541345383239392 -0.06744324598326183 -0.29168251807162643
-0.03816267102956772 -0.07731948047876358 0.05394165962934494 0.5667718157678426 0.12360840714346308 0.8145493665424328
0.011998631060123444 -0.2686659097671509 -0.006617762614041567 -0.9085865259560686 -0.12285429500855924 -0.3992209251141933
-0.029352787882089615 -0.06020385026931763 -0.05665653198957443 0.22356214751419212 -0.03822989041534119 -0.9739396499155756
-0.004421211779117584 0.1770022213459015 -0.01259718555957079 0.9507742946408274 0.30742813450238055 -0.03893819161983856
-0.19089655578136444 0.11322496086359024 0.10133042186498642 -0.7864495345435745 -0.2040086244937195 -0.5829902321208956
-0.1293778419494629 -0.31467321515083313 -0.01405980996787548 0.9383501467453363 -0.16948935319858824 -0.3012845187780649
-0.04965618997812271 0.37449824810028076 0.048669278621673584 0.18557799948055706 0.2732628169914686 0.9438687615122568
-0.09375979751348495 0.17310889065265656 -0.06151217222213745 -0.5267737167920715 -0.20453568173577844 -0.8250300638121901
-0.0706222653388977 -0.08012684434652328 -0.05210983753204346 -0.22659028337360343 -0.10221395333180472 -0.9686119714441661
-0.033566951751708984 0.06789308041334152 -0.035806745290756226 0.702052365161701 0.0018211770545493102 -0.7121229949137983
-0.0756535604596138 -0.02194841019809246 0.08201371878385544 0.475892151628651 -0.017569537791876 0.8793281363404863
-0.0640740841627121 0.39968496561050415 0.019593777135014534 -0.15818028522455474 0.9602995331155729 0.22979078324487098
-0.02104913629591465 0.2005857229232788 -0.06270525604486465 0.8849237865323488 -0.46281073602594563 0.05211635682175652
-0.030918555334210396 0.2868482768535614 0.024470962584018707 0.188626094858487 -0.957789059578704 0.21693389244140446
0.00802526157349348 -0.18806327879428864 0.02333349734544754 0.11337460171310751 -0.8889044841755778 0.4438412077522143
-0.029916776344180107 0.1779671162366867 -0.07828564196825027 0.23408476399659242 -0.6292902056244761 0.741079051363459
0.020023806020617485 -0.34702444076538086 0.024343203753232956 -0.6810701660250924 0.1376589006075404 0.7191616341505409
-0.02445489726960659 0.029010867699980736 -0.05094790458679199 -0.13013549674771754 0.791311976043057 0.5974028030207569
-0.13508020341396332 -0.2541748881340027 0.02662437967956066 0.17450456012031748 -0.15851571005977783 0.9718132167044545
-0.13019900023937225 -0.2726835608482361 0.0175821203738451 0.7039217212402666 -0.1983126569202135 0.6820310113707339
-0.16586776077747345 0.16168969869613647 0.09795200824737549 0.04090621712185891 -0.7011878968148222 -0.7118020896015869
-0.013231352902948856 0.018827760592103004 -0.03990043327212334 0.6037462434639446 0.4714453315976311 0.6428295052484564
-0.17370665073394775 -0.25261542201042175 -0.0005003582336939871 -0.9819295340383153 0.1824199424363072 -0.050372162796840966
0.009212002158164978 -0.05711085721850395 0.0062940046191215515 0.7405082211624336 0.536193882950115 0.4051465096452478
0.022374827414751053 -0.08893465995788574 0.01219354197382927 0.5608459133497296 0.3345689490531536 0.7573080481603083
-0.08671876788139343 -0.05516462400555611 -0.05172920972108841 -0.33164711803334823 -0.14964417327392643 -0.9314595055638959
-0.0034930440597236156 -0.043286219239234924 0.012209577485918999 0.7820619296499787 0.3678980738025064 0.503021018929187
0.018022660166025162 -0.23928414285182953 -0.01501269917935133 -0.8033032940531494 0.083967173520633 -0.589621345894393
0.05769344046711922 -0.30085861682891846 0.001995584461838007 0.9222683775065281 -0.3713065807614376 0.10748238429959721
-0.026901328936219215 0.31087252497673035 -0.011101535521447659 0.48160327455707297 -0.272912174728345 -0.8328128426128826
-0.014444775879383087 0.32925423979759216 0.023920277133584023 0.9632071367749784 -0.1316139341830863 0.23432836788276046
-0.01903202198445797 0.10354911535978317 0.01271043810993433 0.981386865826416 0.015070682066525945 0.19144893346648303
-0.08475780487060547 0.35282960534095764 0.047319114208221436 -0.32196654572273214 -0.04447771129998606 0.945705702971536
-0.17036178708076477 -0.2410706728696823 0.005509278737008572 -0.930678451099141 0.3012213057973962 0.20761345234212406
-0.02670062892138958 -0.20411846041679382 -0.002218554262071848 0.23463886857164246 -0.9596472754704946 0.15498938040225985
-0.009636322036385536 0.15798427164554596 0.011108561418950558 0.9344288052935703 -0.15671065023301867 0.3198196053108302
-0.000575965503230691 -0.046474795788526535 -0.04388398304581642 0.5309551840161642 0.3430845755859402 -0.7748416396666977
-0.06112486496567726 -0.07806777209043503 -0.05487017333507538 -0.14485110117575647 -0.14892936886071645 -0.9781810678902549
-0.15056052803993225 0.07009877264499664 0.0817381963133812 -0.03135573290043973 -0.9831915368636961 0.17986444855468228
-0.12725679576396942 0.15599001944065094 0.05124480649828911 -0.7449548245341833 -0.2986366685586006 0.5965387243050235
-0.14469504356384277 0.01867341436445713 0.05754340812563896 -0.8635272056406169 0.3810725727361075 0.3303096417405822
-0.16407889127731323 -0.3199160695075989 -0.02314397506415844 -0.6780130778603451 -0.1034207881337421 -0.727737869587764
-0.04037267342209816 0.17450344562530518 0.06536628305912018 0.7100354574881667 0.30357240898197296 0.6353687445998991
-0.06980938464403152 0.028693819418549538 0.08127227425575256 0.45194359723868394 0.03585687266255144 0.8913255688006598
-0.1634010225534439 0.11054462939500809 0.12308970093727112 0.6603574739737283 -0.1909145626609177 0.7262779332535357
-0.01417833287268877 0.012989410199224949 0.014091717079281807 0.9759681852480494 -0.004099764747832942 0.21787448981613597
-0.15537989139556885 0.20788997411727905 0.0950530618429184 -0.5288491812026647 0.845113314948281 -0.07811548142589221
-0.15611112117767334 -0.2687276601791382 -0.027341632172465324 -0.12537493957849 0.08404970435315766 -0.98854275159137
-0.182083398103714 0.18822650611400604 0.12333686649799347 -0.4793812521361124 0.8068300279332462 0.3452809307298192
-0.04202606901526451 0.11952025443315506 -0.12223893404006958 -0.9229061497392629 -0.2995142591099594 0.2419409997566795
0.04840231314301491 -0.21730239689350128 -0.01822478324174881 0.20401111114871118 0.11535259987406367 -0.9721487767981618
-0.15352238714694977 -0.42182227969169617 -0.007733422797173262 -0.2608205470583228 -0.9583515368238568 0.11633990759644415
0.009023996070027351 -0.08602102845907211 0.02260860614478588 0.6514546108862115 0.24781358779893878 0.717074135398365
0.019362108781933784 -0.34387847781181335 -0.002161084208637476 -0.7756864423521258 -0.08354539299702803 -0.6255643136081809
-0.1071772649884224 0.10172834247350693 0.06120435148477554 -0.6023418313456782 0.07331782694440056 0.7948640226248043
-0.08964256942272186 0.16353224217891693 -0.06177305802702904 -0.46357929523038915 -0.32387834248053626 -0.8247405994042952
-0.047164466232061386 -0.12237808108329773 -0.04879549518227577 0.19763913028961802 -0.03952652443001156 -0.9794776301911378
-0.10052215307950974 0.10958409309387207 -0.036776572465896606 -0.613741638171973 -0.22391000861825247 -0.7570901595018634
-0.12105592340230942 0.2211577594280243 -0.02061663754284382 -0.911736730561545 0.26891923398304907 -0.3105134131384903
-0.1410336047410965 0.010287507437169552 0.007777081802487373 -0.7595061342159086 0.423374008393165 -0.4938672707373011
-0.008694052696228027 -0.09939233958721161 0.041571877896785736 0.48650182244714624 0.12710303415095459 0.8643846339825961
-0.013836728408932686 0.029745860025286674 0.009414834901690483 0.9887311307473414 0.0813348138870201 0.12567974833300538
-0.14184600114822388 0.21075136959552765 0.032302480190992355 -0.9731891936159742 0.21458894740795675 -0.08279116546730779
-0.14674954116344452 -0.1437506377696991 -0.02313838340342045 -0.9311949663882494 -0.06990770961633715 -0.35775528886291114
-0.13181795179843903 0.1819586604833603 0.08291607350111008 0.18177243471635857 -0.89128166512342 -0.4154224059822857
-0.016559109091758728 0.030754417181015015 -0.019107069820165634 0.9490557380575715 0.16004834581740493 -0.2714364254500688
-0.14275173842906952 -0.42195868492126465 0.008486383594572544 -0.15873089286114464 -0.9858271248016364 0.054308228260946015
-0.04878848046064377 0.27307477593421936 -0.0001493908785050735 0.9238802277878871 -0.18581757786915803 -0.33454021052399846
-0.08591889590024948 0.23088493943214417 0.0756877139210701 0.80822224064915 0.3227017835417084 0.492585392210394
-0.06887578964233398 0.3748897612094879 0.04854561388492584 -0.1697396467914799 0.3828028303184699 0.9081026623720869
-0.010265018790960312 -0.17344719171524048 0.0423208624124527 -0.03786392448050374 -0.35632672043832875 0.9335939114650437
-0.054707564413547516 0.2648174464702606 0.021224090829491615 0.7425561540289424 -0.21136049285951736 0.6355604614605346
-0.1892966628074646 0.1171775609254837 0.13506856560707092 -0.3165971039253372 -0.6142997645282666 0.7227738741035162
-0.013254215009510517 -0.1347217708826065 0.04509346932172775 0.2532199642929063 0.026699847004923262 0.9670402100499301
-0.140184685587883 0.020486151799559593 0.06586761027574539 -0.771542643564608 0.39955210912123634 0.4950556143082392
-0.012966375797986984 0.01651039905846119 0.0005616123671643436 0.9986177414659978 0.039055671731944 -0.03517472011141197
-0.07545142620801926 0.36099082231521606 0.05005979537963867 -0.24507446282132841 0.03686854176631356 0.9688029821903228
-0.12876655161380768 0.24408447742462158 0.05581682175397873 -0.8422443294736945 0.5364199622241005 0.0536480530578815
-0.15288391709327698 -0.27140310406684875 0.026919905096292496 -0.032418060871241224 -0.09817866750561927 0.9946406479609455
-0.0677175372838974 0.1959766149520874 -0.08411459624767303 -0.8835462325042034 -0.30446913381131735 -0.35587160828564907
-0.15651819109916687 0.0011153696104884148 0.030633412301540375 -0.9207534889901997 0.37025354070499594 -0.12298507270310602
-0.05731302127242088 0.25496727228164673 0.02302916906774044 0.7804074217929378 -0.026726402132724477 0.6246998922999265
-0.06351181864738464 -0.14029577374458313 -0.05174103379249573 -0.166668286770809 -0.05574831103957293 -0.9844357815526203
-0.1288110464811325 -0.3898979425430298 0.00019570664153434336 0.6853520695302978 0.6106122134111633 0.396793731835141
-0.03965827450156212 0.24170255661010742 -0.014972174540162086 0.846371550019066 0.4685384457672908 0.25323294445291916
-0.1258896291255951 -0.06783317029476166 0.08779244869947433 -0.16131188004548136 -0.0250143071060074 0.9865864188180367
-0.051394686102867126 -0.07202926278114319 0.06296562403440475 0.6118799864557063 0.05196827919852791 0.7892415220527292
-0.13250111043453217 0.1469559669494629 0.020209794864058495 -0.9857906245128617 -0.14159804231621712 -0.09037056509039226
0.005285389721393585 -0.059942204505205154 -0.04478345066308975 0.5881284077690409 0.3938571593285204 -0.7063862357242823
-0.1721843183040619 -0.1720236837863922 0.0488906167447567 -0.8730792283373197 0.08403283465964896 -0.4802823583528493
0.05916281044483185 -0.2331857830286026 0.015434355475008488 0.5838503791084758 0.0821331426534136 0.807696032980702
0.002203655429184437 -0.392057329416275 0.005096422042697668 -0.8681525976805847 -0.17464997002768354 -0.4645518863483198
-0.14478999376296997 -0.37825149297714233 0.0026669353246688843 -0.2062401439008255 0.0037337504607188143 0.9784942831469502
-0.11278734356164932 -0.04275333508849144 0.09076325595378876 -0.08380822446599202 0.00401565074193163 0.9964738110261487
-0.045634109526872635 0.20011843740940094 -0.1066279411315918 -0.2445032080306901 0.5529933736022565 -0.7965026742043597
-0.050576917827129364 0.3727627098560333 0.04932461678981781 0.16956091868877876 0.21288076015491078 0.9622530212003935
-0.0641893669962883 0.2640666365623474 -0.053965698927640915 -0.1076679672912153 0.9212411585657307 -0.3737945111740513
-0.13093821704387665 -0.27724745869636536 0.017677513882517815 0.7064889279626927 -0.2044350040679932 0.6775542220205294
-0.03021380677819252 0.0010161394020542502 -0.04875236377120018 -0.29522558834599355 0.05579890228544862 -0.9537967993705478
-0.015860477462410927 0.13056056201457977 -0.1294552981853485 0.9552154796828963 0.2060133357734572 -0.2124191442823995
-0.09730261564254761 0.1552644670009613 -0.051282402127981186 -0.664699441006221 -0.2657060371409776 -0.6982656764819927
-0.10553624480962753 0.338472455739975 0.03259415924549103 -0.7160411094309236 -0.16138171379934646 0.6791473124853826
-0.025506334379315376 0.16466470062732697 -0.1284569650888443 0.6891432825659479 0.3838103022111797 -0.614630936425098
-0.08906801044940948 0.06573879718780518 0.07931385934352875 -0.021543087251114507 0.2658593426823374 0.9637710855282008
0.09462525695562363 -0.4318985641002655 -0.009182455949485302 0.05472346898843401 0.9918044189784626 -0.11545274547045697
-0.007213900797069073 0.32846465706825256 0.009682809934020042 0.9742443033184395 0.02131961609813994 -0.22448499152726575
0.05528263747692108 -0.11178693920373917 -0.03080579824745655 0.7145604500602968 0.3242436801571657 -0.6198946677361918
-0.140398770570755 -0.4168957769870758 0.037306685000658035 -0.7768541092743131 0.5697367981570004 0.26813741575808303
-0.020622920244932175 0.04650084301829338 -0.022459503263235092 0.9003652423173323 0.2145618427010121 -0.378557322057833
0.07033425569534302 -0.13436223566532135 -0.02599312923848629 0.7983551213717073 0.32843819768962534 -0.5047350299691482
-0.1321350634098053 0.23708610236644745 0.0721496045589447 -0.8279223178721377 0.5481003832665933 0.11887222313156606
-0.034332532435655594 0.18200801312923431 -0.07442176342010498 0.48984856986616354 -0.7603815595667538 0.4264601534386368
-0.04974154755473137 0.25451475381851196 -0.0731196403503418 -0.09716596625794606 0.7741331819842492 -0.6255210560421617
-0.12735608220100403 0.14863187074661255 0.0475136935710907 -0.80544773340284 -0.3627282223124162 0.4687026621369907
-0.16049598157405853 -0.09501750767230988 0.0334613062441349 -0.9363617397342686 -0.2835813568428254 0.20690168296317935
-0.013729284517467022 0.03560827672481537 0.0032800259068608284 0.9952637842872833 0.09623328539541683 -0.013753343890128594
-0.02484934777021408 0.3374244272708893 -0.010807222686707973 0.5714611473461546 0.05231305094980481 -0.8189600123169261
-0.039157986640930176 0.11493637412786484 -0.14326733350753784 -0.6986941605228064 -0.3089311504864058 -0.6452813450817221
-0.04232226684689522 -0.18543416261672974 0.03697812557220459 0.13291875545728493 -0.6373598532729106 0.7590158245278029
0.06757915765047073 -0.4085467457771301 -0.005098138004541397 0.4359723741831306 0.49842880135127376 -0.7493309141712071
-0.0824974849820137 -0.04268202185630798 -0.054594606161117554 -0.27549407834929845 -0.061401840403921326 -0.9593397869313469
-0.04676487296819687 0.017063990235328674 0.06545072793960571 0.6700565402840996 -0.1255020557486062 0.731623856107342
-0.01945427432656288 0.12807248532772064 0.006167331710457802 0.9914497161325163 -0.05877273255139559 0.11650419000703348
0.09199130535125732 -0.4229223430156708 -0.0049639116041362286 -0.008083569373417239 0.9865557076005901 -0.16322527900691233
-0.12725481390953064 -0.2770024538040161 0.007188856136053801 0.922269499696921 -0.1478507121730266 0.35715421996487773
-0.0499773733317852 -0.1381794810295105 0.05483178421854973 0.47660243295829346 -0.29485892980807366 0.828195829747212
-0.02388717420399189 -0.10121343284845352 0.048757560551166534 0.43848212690158167 0.0910586778918562 0.8941150605869763
-0.04216757416725159 0.18888282775878906 0.052414897829294205 0.7172335275487299 0.501970061067779 0.48332403700997084
-0.12429530918598175 -0.41463473439216614 0.0517960861325264 -0.3140721732559992 0.8739959311570757 0.3707961465645645
-0.0959685668349266 -0.050134189426898956 0.08987065404653549 0.15025987850557393 -0.028244538774060166 0.9882429938739413
-0.15505529940128326 -0.4052249789237976 -0.00435036513954401 -0.9033639515342999 -0.11819178111495154 0.4122672360802035
-0.1325402557849884 0.1463117003440857 0.021672368049621582 -0.9868071392918544 -0.13279547834030148 -0.09261226039244078
-0.16335949301719666 -0.09254893660545349 0.0631355419754982 -0.9580666646244007 0.14364433383219855 0.24794066123445754
-0.0704779177904129 0.4008635878562927 0.011157242581248283 -0.058047870254347766 0.9977865227285663 0.0324422536234876
-0.039606835693120956 0.11247638612985611 0.05169003829360008 0.7206565599492797 0.07329080088844632 0.6894074130056917
-0.01685970090329647 0.059489909559488297 0.00715406471863389 0.9920517417115091 0.11351769167225659 0.054286973065034654
-0.07369466871023178 0.030815592035651207 0.08274511992931366 0.2927341535399574 0.0660255104032725 0.9539116035184979
-0.011448973789811134 0.05406462028622627 -0.0832722932100296 0.9921603311974244 0.04426475456644262 0.11686962266298971
-0.033651676028966904 0.1261301040649414 0.042571745812892914 0.8210676992260613 0.0010160511972487861 0.5708299229434165
-0.03911496326327324 0.12613177299499512 -0.05004505440592766 0.5697871376986222 -0.2004243421684339 -0.7969772272653478
-0.045171793550252914 0.25713053345680237 -0.06962208449840546 0.03155299581202494 0.88930196246621 -0.45623067412114465
-0.07937240600585938 0.023631589487195015 0.08535099029541016 0.2704871143206982 0.06664689028994297 0.9604139279504134
-0.12245701253414154 0.18398818373680115 0.08631764352321625 0.263546838710684 -0.9559907948261569 -0.12893666667499062
-0.10356132686138153 0.26385921239852905 0.005082305520772934 -0.8936549654501322 0.2973859796480506 -0.33606901350034074
0.027582556009292603 -0.06757757812738419 -0.021379195153713226 0.6959144982073381 0.6919436207796026 -0.19213806714766912
-0.16458167135715485 -0.10178138315677643 0.007401468697935343 -0.947821212257939 -0.11807598504712577 -0.29613005816539756
0.04659780487418175 -0.09763973951339722 -0.028064046055078506 0.7160792197995703 0.5394042621212001 -0.4430277564405219
-0.09871315211057663 0.2677784562110901 -0.009680142626166344 -0.9167987440563204 0.32565265148487954 -0.2311501967933862
-0.021749749779701233 0.10183063894510269 0.022879023104906082 0.9600658475160276 0.024483386893756884 0.2787007933242065
0.06734944880008698 -0.13529790937900543 -0.03075663559138775 0.508795285098807 0.10149050561010567 -0.8548842232327305
-0.049367088824510574 -0.1942126750946045 0.022194549441337585 0.08232083249630012 -0.8772869217634189 0.47285403396818043
0.01419378537684679 -0.23173657059669495 -0.0017521081026643515 -0.9927968669284731 0.11185081033500391 0.042939227338303236
0.06656761467456818 -0.4143102169036865 -0.01277698390185833 0.14340151814904614 0.5338696822996983 -0.8333181666769109
-0.005995710846036673 -0.1791490912437439 -0.030422210693359375 0.5676832715978972 -0.1961595810543999 -0.7995355663811776
-0.16881264746189117 0.08204274624586105 0.10557946562767029 -0.3612107725862841 -0.7510683025360051 0.5526510496627179
-0.14001324772834778 -0.03795533627271652 -0.012705408968031406 -0.7170926625485713 -0.0030975110829975653 -0.6969709597566397
-0.08120700716972351 0.23260733485221863 -0.07198552787303925 -0.5899216158814198 0.2960196264782259 -0.7512422165024715
0.006434621289372444 -0.3764066994190216 0.02559211105108261 -0.6261567281791597 0.24491730614838503 0.7402318994105753
0.05818094685673714 -0.18880301713943481 0.011648622341454029 0.3947207791309878 -0.7234372078491976 0.56642220367989
-0.16491244733333588 -0.362456351518631 -0.01462593860924244 -0.9967794372531505 -0.07820324922376974 0.017748388099700113
-0.12977300584316254 0.12074922025203705 0.010857229121029377 -0.9721508183937992 -0.07337035238891247 -0.2225748810773423
-0.016141509637236595 0.22918203473091125 -0.07429428398609161 0.9152202784950464 0.3431234099767149 -0.21127746533267847
-0.05651131272315979 0.19549043476581573 -0.10316428542137146 -0.6295854732519454 0.4515997000399713 -0.6322023748721068
-0.07586075365543365 0.25335270166397095 0.03832417353987694 0.4955443111567773 0.2947782370838215 0.8170322066001496
-0.11243896186351776 0.09612647444009781 0.05753712356090546 -0.7948087352964791 0.09982921287867624 0.5985926850141385
-0.023290760815143585 0.12270510196685791 -0.02869991585612297 0.9161090912168344 -0.13362655050343317 -0.3780053941287339
-0.08797593414783478 0.05490688607096672 -0.03954199701547623 -0.5293742903446851 0.07416857532525077 -0.8451401559246158
-0.1618438959121704 -0.35091498494148254 -0.02521122246980667 -0.6895234587040254 0.05682569777099013 -0.7220306364481208
-0.016187749803066254 0.04608301445841789 -0.0708933025598526 0.6652115648481044 0.35215961263379153 0.6583898398532242
-0.02917170338332653 0.3940582871437073 0.012250353582203388 0.5706781582692138 0.8025154234526171 -0.17405583815294692
-0.03717421740293503 -0.00028855717391707003 -0.04259319603443146 -0.9949407045542819 -0.07569629458548753 0.06605350412397747
-0.1065729483962059 0.023165307939052582 -0.03062647208571434 -0.7018449063248114 0.31932736397190925 -0.6367446600362411
-0.06426984071731567 -0.11073042452335358 -0.05122070014476776 -0.04827862135317098 -0.03196758193354813 -0.9983222167344364
-0.09535382688045502 -0.20061436295509338 0.029139943420886993 0.3898327397508771 -0.6722856791257843 0.6293348875286576
-0.042405325919389725 0.0372542068362236 0.06301980465650558 0.7023610861110593 -0.004483646932193198 0.7118067164807316
-0.13291049003601074 0.23536159098148346 0.04516781494021416 -0.9220249576325041 0.38574304451870817 -0.03274570366043212
-0.1158037930727005 0.09103532135486603 -0.012570158578455448 -0.8900598590388588 -0.1193144593190006 -0.43995170999229144
-0.026848454028367996 0.07976237684488297 -0.12995484471321106 -0.3309421879755597 -0.4303327418988064 -0.839816050970571
-0.15867629647254944 -0.18368208408355713 0.023646319285035133 -0.9420987788804573 -0.12962928833054224 -0.30926709886256654
-0.010656194761395454 0.044812582433223724 -0.08297058194875717 0.9838798602505616 -0.10377370574387101 -0.14564147276624195
0.0007561306701973081 -0.04090024530887604 0.001000271295197308 0.800636400016095 0.4650191976884309 0.37780749165477834
-0.0020635270047932863 -0.00168794603087008 -0.04988165572285652 0.4380596452130594 -0.3398690507396133 -0.8322215904344004
0.05859804525971413 -0.18547235429286957 -0.011268729344010353 0.4434497471465974 -0.6252477152630833 -0.6421974901180423
-0.03441688418388367 0.34932366013526917 0.04495434835553169 0.28883214225598736 0.012536754037936153 0.9572976670806262
-0.09828193485736847 -0.14800028502941132 0.08027149736881256 0.36169519126399535 -0.301543434035332 0.8821837371016774
0.05074635520577431 -0.15585574507713318 -0.028652634471654892 0.38984259559103296 -0.23653627382647546 -0.8899850233723784
-0.16374343633651733 -0.058726657181978226 0.007676961366087198 -0.8399952651606083 0.14570122696459062 -0.5226653871921999
0.013605009764432907 -0.05414406210184097 -0.006261578761041164 0.7404490538450548 0.6134999185653998 0.2745050975486817
-0.1586487740278244 -0.26352018117904663 0.025380535051226616 -0.4712076574886513 -0.015587243617744051 0.8818845623778994
0.03745701536536217 -0.23820599913597107 0.024467453360557556 -0.0879036526005668 0.22326539505099188 0.9707860275221329
-0.06357457488775253 0.369964063167572 0.050414539873600006 -0.026482206137215553 0.18805391387601122 0.9818016185737422
-0.10691200196743011 0.24552609026432037 0.0847286507487297 0.09025206719340997 0.8617752804109745 0.4991972860902815
0.07288113981485367 -0.419430136680603 -0.0148984519764781 0.18823711106946853 0.5489028129951425 -0.8144154295580607
-0.13512761890888214 -0.2853681147098541 -0.02668815664947033 0.6993817210806759 0.016699154722860845 -0.7145532495551145
0.08193700015544891 -0.41313016414642334 0.012489995919167995 0.6546176245496063 0.7162152164017778 0.24189156542464585
-0.05864555016160011 0.2671426832675934 -0.044586341828107834 0.2760683690056067 0.9462813921298243 -0.16833829791056415
-0.0388806015253067 0.15845195949077606 -0.13690072298049927 0.020629447284336615 0.41526921417279655 -0.9094646258459154
-0.06255742907524109 -0.10006210207939148 -0.05232385918498039 -0.04949823720479886 -0.09761178392312701 -0.993992889387526
-0.027959803119301796 0.05142777040600777 0.045932985842227936 0.8427994789176882 0.05627979513483515 0.5352771459680062
-0.08281312137842178 0.059424884617328644 -0.04131591320037842 -0.421398441798833 0.030476989267486744 -0.9063633412570838
-0.11555173993110657 0.07230441272258759 0.07892715185880661 0.3449454003570511 0.9375321031509755 -0.04523523332340089
-0.03904241696000099 0.10782695561647415 0.05154271796345711 0.7245417047086028 0.0751305532357395 0.6851238706310294
-0.07628246396780014 0.09725772589445114 0.07106022536754608 0.06687487551536705 0.17941274246786326 0.9814982520947066
0.020957229658961296 -0.125824972987175 -0.04564754292368889 0.6881343165570154 0.22236321995719185 -0.6906705153594433
-0.0898626297712326 0.3940553367137909 0.004374978598207235 -0.4283489044981038 0.9015129350229684 -0.061576326632463124
-0.08967677503824234 0.15017010271549225 -0.05579961836338043 -0.5281047781395171 -0.2954075399892931 -0.796140520651779
-0.018937328830361366 0.13295213878154755 -0.023349732160568237 0.9196406341162394 -0.3046955761448504 -0.2478340371297672
-0.14962734282016754 -0.22601163387298584 0.02585153467953205 -0.4871781132551174 0.04623698261987053 0.8720777645390312
-0.03446625545620918 0.05335533246397972 -0.038419391959905624 0.6311983569486587 0.07006870376379813 -0.7724500054619553
-0.02123044990003109 0.03724949434399605 -0.05910295620560646 -0.1691242279765685 0.7833408238738396 0.5981422482687407
-0.17164915800094604 0.17392949759960175 0.13269364833831787 0.24808077074505452 0.2991411880292277 0.9213959413905631
0.015453418716788292 -0.06368948519229889 -0.03847728297114372 0.6276193306622373 0.473517211862137 -0.6179606992757657
-0.07621286809444427 0.10678151994943619 0.06954532116651535 0.12405702191895684 0.14094479741153884 0.9822140395021951
-0.1354357898235321 0.041114442050457 0.04173728823661804 -0.9192814031566287 0.38088043277909117 0.09925622265829087
-0.058375000953674316 0.2665541470050812 -0.047098558396101 0.21742124495074544 0.9469293127005545 -0.23675489222510993
-0.047418903559446335 0.19585898518562317 0.052227672189474106 0.6987491862701164 0.4959360766663993 0.5155550237827089
-0.08227696269750595 -0.20661862194538116 0.005613567307591438 0.3874672349356559 -0.8632314899397308 0.3235746229662484
-0.05932941660284996 0.3480636179447174 -0.023839937523007393 0.22693801882616205 -0.07753422649345693 -0.970817994957509
-0.11317513138055801 0.38105589151382446 -0.004014217294752598 -0.6149863902873457 0.746645057765233 -0.25359987672728157
-0.03472431004047394 -0.1824643760919571 -0.04679203778505325 0.19468375760517076 -0.0755807016805811 -0.9779497901519292
0.01931249350309372 -0.2146909236907959 -0.012773821130394936 -0.8342658253674765 -0.12578919234871708 -0.5368217690371551
-0.11281132698059082 0.25720566511154175 0.016847677528858185 -0.7083529069913624 0.5914136161151168 -0.3853129816532628
-0.008791071362793446 -0.19193331897258759 0.01956024579703808 0.08655447099282731 -0.9100792431058223 0.40529507129878284
0.05164400860667229 -0.13608166575431824 0.02525140531361103 0.3762976480820873 0.4976137409733518 0.7815245644523244
0.05112063139677048 -0.18490931391716003 -0.013616889715194702 0.2605028892825536 -0.3174878744928536 -0.9117783141890642
-0.12486366182565689 -0.18710318207740784 0.06349869817495346 -0.03210628333060353 -0.7264703718714028 0.68644736532652
-0.03887692466378212 0.15365254878997803 -0.08953635394573212 0.003453085528704272 -0.45057784748618074 0.892730462992639
0.002806819509714842 -0.18242621421813965 0.03459625318646431 0.12780996025450772 -0.7632760129995112 0.6333043044534842
-0.13954122364521027 0.2180008888244629 0.0416053906083107 -0.9533969557248233 0.30099688374156736 -0.02085954919227229
-0.09562475234270096 0.13416431844234467 -0.04786268249154091 -0.5958088742313917 -0.26425919062903624 -0.758405475689099
-0.09898123145103455 0.08036252856254578 -0.0311836339533329 -0.6765617358054217 -0.08985181727765072 -0.7308836217728912
-0.16037768125534058 0.11826390027999878 0.12014447897672653 0.8768353885526105 0.2836009422443498 0.38823988324219066
0.02112593501806259 -0.29348066449165344 -0.014890793710947037 -0.6939908350867443 -0.2009452985126168 -0.6913737830011192
-0.15644696354866028 -0.3294070363044739 0.012876061722636223 -0.41786754335364507 -0.22421359337674016 0.8804061453424092
-0.015271903946995735 -0.18935956060886383 -0.038324736058712006 0.614556172932703 -0.1871069489600588 -0.7663626425923745
-0.0746866762638092 -0.047880902886390686 -0.056292422115802765 -0.24123126110781815 -0.09588169686954563 -0.9657195135595783
0.06784041970968246 -0.4258376657962799 0.007919443771243095 0.2519169463496131 -0.9490519437896489 0.18930995782307797
-0.036841604858636856 0.12677741050720215 -0.04864277318120003 0.5697871376986223 -0.20042434216843394 -0.7969772272653478
-0.03337383270263672 0.06155446916818619 -0.08181808888912201 -0.19130719362735216 0.6781484295596243 0.709588800047071
-0.09524466097354889 0.20430460572242737 0.09045550972223282 0.6165104515808091 -0.3227935852338168 0.7181358955124898
-0.14854592084884644 -0.16188284754753113 -0.022248197346925735 -0.9984947523175218 0.02660332277529045 -0.04796345287491965
-0.012265934608876705 0.023661401122808456 0.004330698400735855 0.9979092407989747 0.0629916541182386 0.014463700752657523
-0.15035733580589294 -0.2882259786128998 0.02450915053486824 -0.014443666997040971 -0.2033295050879968 0.979003826777173
-0.15741845965385437 -0.025736244395375252 0.06082795187830925 -0.8361465372674047 0.18440904216701307 0.5165774611641253
-0.060340676456689835 -0.0010168574517592788 0.07184711843729019 0.6275225410235631 -0.10006401146824209 0.7721416023736929
-0.07422706484794617 0.39270293712615967 0.03263479471206665 -0.2281824122975132 0.8432447244103259 0.48669407380020685
-0.09748281538486481 0.10232653468847275 -0.03601142391562462 -0.594072673196175 -0.18023239113489048 -0.7839604225643988
-0.08320952951908112 -0.006963857915252447 0.08597040921449661 0.3256221850623162 -0.024658455088207704 0.9451783710961151
-0.03262126445770264 -0.18356932699680328 0.0391671396791935 0.12367312417051793 -0.552961236830096 0.8239774444250486
-0.11205019801855087 -0.23454783856868744 0.012933713383972645 0.7713931303946107 -0.6346506949764558 0.04659542623375177
0.03378542885184288 -0.2712969481945038 -0.025631356984376907 -0.1130896586959911 -0.029482311191700618 -0.9931472813348583
-0.024454955011606216 0.19632862508296967 -0.10621125251054764 0.2975676107386188 0.2893790032085338 -0.9097875079057446
-0.06205260381102562 -0.20716963708400726 -0.004168368875980377 0.06668144537109338 -0.9876362162284525 0.14187420215517377
-0.11340925842523575 0.049426451325416565 0.07639695703983307 -0.7798579369786156 -0.11225641802884864 -0.6158084886901041
-0.14488235116004944 -0.3805335462093353 0.0024243348743766546 -0.304132156378486 -0.10171325733086636 0.9471842717970549
-0.07963396608829498 -0.05814371258020401 0.08443867415189743 0.38749507449378934 -0.05971144588921072 0.91993592737368
-0.04197882115840912 0.39779454469680786 0.011013380251824856 0.27580057177551365 0.9481679218628187 -0.1578342059207818
-0.07667005062103271 0.2260904163122177 0.06236002966761589 0.7527716772071752 0.4069565879385315 0.5174177591928257
-0.07075650990009308 0.12464133650064468 -0.05519239231944084 -0.1254038692922327 -0.2562654396702819 -0.9584372144262419
0.04561621695756912 -0.3238498866558075 -0.01065150648355484 0.5702160490348267 -0.40444165563044354 -0.7150388832881873
-0.09760447591543198 0.10971546173095703 -0.03916611522436142 -0.5420861225035521 -0.21504172774428335 -0.8123421022683839
-0.05880012363195419 0.11191592365503311 -0.05318303778767586 0.06917528633270227 -0.2564138972648861 -0.9640885296746462
-0.09975623339414597 -0.19433648884296417 -0.04020277410745621 -0.01781362772793556 -0.5330471532102039 -0.8458979886024485
-0.1447746306657791 -0.04079670459032059 -0.008080089464783669 -0.7091453405789115 0.058020572078910634 -0.7026709750308857
-0.11954440921545029 0.06838730722665787 0.0038601236883550882 -0.8864185450983972 0.020458367875940246 -0.4624322848693563
-0.06120387837290764 0.25248637795448303 0.029183076694607735 0.7769812389449186 0.10515210071592265 0.6206796194838752
-0.10592222958803177 0.199236199259758 -0.05893339589238167 -0.7223134945039579 0.02526350705690486 -0.691104167885469
-0.1701592355966568 -0.16868428885936737 0.07777094095945358 -0.4819968321648962 -0.6139353550398733 0.6251099372231013
-0.10427368432283401 0.26658159494400024 0.04236181080341339 -0.040983979398793245 0.8582312487086484 0.5116243125308194
-0.02636936493217945 0.3843984007835388 -0.0016703115543350577 0.6361794938640878 0.5791460599196109 -0.5097700392004455
-0.03348228335380554 0.28816401958465576 0.02629946917295456 0.24835379957045167 -0.8066426180115573 0.5363283295206219
-0.09893748909235 -0.009750458411872387 -0.0477600023150444 -0.4879959578238663 0.12514563043131613 -0.8638278279446175
-0.15556681156158447 -0.30655404925346375 0.019389383494853973 -0.3008571217721211 -0.30554935207984973 0.9033961399754702
-0.07841247320175171 -0.09713038057088852 -0.04882501810789108 -0.3018823118827529 -0.08408829071997063 -0.949629522043264
-0.16633696854114532 -0.08872543275356293 0.027881324291229248 -0.9552453386210178 -0.24785886745860394 0.16146926910392415
-0.11317995190620422 0.10526196658611298 0.05582834407687187 -0.7836294961346254 0.019978113439876762 0.620907149073979
-0.12578919529914856 0.019408635795116425 -0.006363601889461279 -0.7760371911924439 0.3906101558664115 -0.4951666224819279
-0.05240999162197113 0.18335001170635223 -0.11584913730621338 -0.5869565300804607 0.49922138793145454 -0.6373853133134598
-0.06965316832065582 0.1580483764410019 0.08072584867477417 -0.02578819408517386 -0.3346894139041247 0.9419755651110803
-0.0527784489095211 0.23839053511619568 0.018394429236650467 0.8472543325260897 0.31619607048804044 0.4268256564730997
0.03188098594546318 -0.30871960520744324 -0.01684523932635784 -0.3522209928266348 -0.2804930010685653 -0.8928964377595923
0.04633728042244911 -0.3092680871486664 0.017759958282113075 0.5603450987129256 -0.06695085667541348 0.8255488799210075
-0.04187525436282158 0.021195869892835617 -0.05066855996847153 -0.4457942902855125 0.7679984006087438 0.45983247755160545
-0.09651882946491241 0.35161879658699036 0.04097303748130798 -0.5722648260734532 0.010578764150864355 0.8200006454803318
-0.0407811664044857 -0.18478865921497345 0.03909101337194443 0.12945076332251526 -0.5392300657612943 0.8321498879734879
-0.022466273978352547 0.16976986825466156 0.03796311095356941 0.8738641745934094 0.17611007235902418 0.45315190254028365
-0.0646231397986412 -0.2071477770805359 -0.02788359299302101 0.18318492397789166 -0.686374679248625 -0.7037990361698155
0.07246817648410797 -0.13478030264377594 -0.01905486173927784 0.8728094721215229 0.3985871468735644 -0.2816592120313842
0.05845370888710022 -0.22212494909763336 0.01316890213638544 0.542718608675761 0.19101458636551483 0.817905825625822
-0.1587032824754715 0.1950589418411255 0.08274316787719727 -0.6138027399976272 0.34284094953628563 -0.7111302832058717
-0.17936980724334717 0.12506605684757233 0.10221496224403381 0.0017452601358095368 0.4253195660138538 -0.9050415575170268
0.06241801753640175 -0.19773860275745392 -0.010607980191707611 0.6635121160007517 0.07658431189536517 -0.7442355239383018
-0.08152928203344345 -0.18692012131214142 0.03812118247151375 0.2734694707820159 -0.913832920891498 0.3002063311209762
-0.03457924351096153 0.2843075692653656 0.012927297502756119 0.021348462664080137 -0.9992760999682777 0.03148839745158764
-0.15323121845722198 0.1788351684808731 0.1237938180565834 0.49380264026996423 -0.05787884326612744 0.8676456603732813
-0.09483051300048828 0.05129801109433174 0.07569298148155212 -0.6522482120829832 -0.11198440245366566 0.7496877773057576
-0.08099521696567535 0.10027127712965012 -0.04500605911016464 -0.4775449540113272 -0.22349282096899264 -0.8497068764424831
0.02501218020915985 -0.38557711243629456 0.03088999353349209 -0.15993615271134404 -0.12867673401981472 0.9787046158968943
-0.0922984629869461 0.34990203380584717 -0.026751695200800896 -0.27425019574574494 -0.17304110467392975 -0.9459617361324119
-0.09951646625995636 -0.18808519840240479 0.06599630415439606 0.1319873234436381 -0.7233952848331942 0.6777009726503913
-0.08529944717884064 0.07412995398044586 0.07672763615846634 -0.02453999462991198 0.20712708047671166 0.978006217360993
-0.13774318993091583 0.1760023832321167 0.046833574771881104 -0.8690378911064791 -0.29410114375389157 0.39784125108371604
-0.06231022626161575 0.22520840167999268 0.043448034673929214 0.7386972029398478 0.40165401760519887 0.5412951990461841
-0.048882856965065 -0.11415059864521027 0.060406967997550964 0.521947220418303 -0.17044705487381615 0.835774431639572
-0.10068925470113754 -0.041044823825359344 -0.04904063418507576 -0.4553078681188785 -0.10330665164008486 -0.8843203497352959
-0.17069163918495178 -0.12794525921344757 0.06790419667959213 -0.9817428992845274 0.1298560207222706 -0.13899026435900996
-0.046977005898952484 -0.049150675535202026 0.05783082917332649 0.6770321276778968 0.05072341463557528 0.7342034004958353
-0.08375900983810425 0.10102531313896179 -0.04389144480228424 -0.48832951193031504 -0.2298084895327736 -0.8418564877201846
-0.010655764490365982 -0.08166515827178955 -0.05360209569334984 0.19221837131097275 0.10315234496336768 -0.975915821912482
-0.024419570341706276 0.2154984474182129 -0.09734103828668594 0.6749725198454055 0.32216441786173283 -0.6637937822225773
-0.1029110848903656 0.24872207641601562 -0.009260403923690319 -0.8088180114273227 0.5632778251569407 -0.16891274693526948
-0.03708116337656975 0.0731251910328865 -0.11568799614906311 -0.6860272374472077 -0.4775181277108046 -0.5489472353406292
-0.10473200678825378 0.18925528228282928 0.08207158744335175 0.2713337075314097 -0.7273713281143198 0.6303244959498797
